ply
format ascii 1.0
element vertex 1276
property float x
property float y
property float z
property uchar red
property uchar green
property uchar blue
end_header
-0.029582 -0.363463 0.132930 127 127 0
0.358068 0.250263 0.203395 255 0 0
0.185485 -0.319153 -0.254870 0 255 0
-0.577743 -0.363463 -0.180670 127 127 0
0.801632 -0.390935 -0.222304 127 0 127
0.801632 0.120213 -0.201384 127 0 127
0.113873 -0.380633 0.224225 127 0 127
0.776038 -0.005045 -0.254870 0 255 0
0.050234 -0.418582 0.137433 76 0 153
-0.181665 -0.363463 -0.145607 127 127 0
0.164197 -0.278158 -0.244455 0 255 0
0.750019 0.384409 -0.254870 0 255 0
-0.402227 -0.363463 -0.190056 127 127 0
0.567758 -0.421788 0.137433 76 0 153
-0.220720 -0.338549 -0.254870 0 255 0
-0.820044 0.162327 0.239229 0 0 255
0.400338 -0.416196 0.137433 76 0 153
0.774850 -0.122494 -0.244455 0 255 0
-0.837011 -0.257792 -0.239965 0 127 127
0.815519 0.242036 -0.255530 127 0 127
-0.806135 -0.278186 0.239221 0 0 255
-0.039654 0.249196 0.203395 255 0 0
0.586112 -0.348623 -0.244455 0 255 0
-0.611044 0.056067 0.225320 0 0 255
0.585350 0.073202 -0.244455 0 255 0
0.449199 -0.370402 0.224225 127 127 0
-0.194282 0.331092 -0.254870 0 255 0
0.133126 0.407051 0.224225 204 51 127
-0.823124 -0.233381 -0.043514 0 127 127
-0.367386 -0.397827 0.224225 127 127 0
0.452161 0.337391 -0.143775 153 76 0
-0.594572 -0.255352 0.225320 0 0 255
-0.307439 0.374349 0.224225 153 76 0
-0.367494 0.111039 -0.244455 0 255 0
0.601707 0.306576 0.163989 76 0 153
-0.794563 -0.231564 0.224225 0 0 255
0.725416 0.312746 -0.143775 153 76 0
-0.710870 0.151776 -0.244455 0 255 0
-0.805357 -0.081935 0.203395 76 0 153
0.296109 0.330795 0.224225 76 153 0
-0.683739 -0.159095 -0.244455 0 255 0
-0.088520 0.012105 0.233085 0 255 0
-0.349237 0.245275 0.230601 0 0 255
0.815519 -0.270097 -0.050446 127 0 127
0.209071 0.017123 -0.254870 0 255 0
-0.542731 0.131265 0.233085 0 0 255
-0.613205 0.026869 -0.244455 0 255 0
-0.407708 0.091473 -0.254870 0 255 0
0.815519 0.128544 -0.102980 127 0 127
0.763234 0.400312 -0.140155 153 0 76
-0.837011 -0.262363 -0.002395 0 127 127
-0.661082 0.351708 -0.265541 204 51 127
-0.837011 -0.414612 -0.043641 153 0 76
0.182701 0.126531 -0.244455 0 255 0
-0.623252 -0.224596 -0.254870 0 255 0
-0.814749 0.423835 -0.275700 204 51 127
0.364164 -0.051701 0.224225 76 153 0
-0.379647 -0.001782 0.239223 0 0 255
-0.603118 -0.363463 0.185139 127 127 0
0.780802 0.285884 0.205546 76 0 153
0.071026 0.294400 0.233085 204 51 127
-0.036025 0.126460 -0.244455 0 255 0
-0.724969 -0.352059 0.224225 0 0 255
-0.837011 -0.374550 0.164087 0 127 127
-0.361480 0.369914 -0.254870 0 255 0
-0.767801 0.167044 -0.244455 0 255 0
-0.605634 0.269404 0.224225 0 0 255
-0.594049 -0.336471 0.224225 0 0 255
0.158233 0.326758 -0.254870 0 255 0
-0.706622 0.031871 0.225320 0 0 255
-0.823124 -0.032647 0.194919 0 127 127
-0.331549 0.414646 -0.275700 204 51 127
-0.837011 -0.495953 -0.093268 153 0 76
-0.827484 0.301570 0.224225 76 0 153
-0.294955 -0.363463 0.081811 127 127 0
-0.469843 0.306576 0.089647 127 127 0
0.815519 -0.204068 0.095770 127 0 127
0.576370 -0.243228 0.225320 76 153 0
0.815519 -0.469217 -0.210524 153 76 0
0.349739 -0.370759 0.224225 127 127 0
-0.823124 0.130531 0.010611 0 127 127
0.298070 -0.395871 0.224225 127 127 0
-0.438012 -0.363463 0.159425 127 127 0
-0.026703 0.336418 -0.254870 0 255 0
-0.823124 -0.320256 -0.102876 0 127 127
0.817529 0.371171 0.224225 76 0 153
-0.193865 0.261786 -0.244455 0 255 0
-0.505456 0.418729 0.203395 0 255 0
-0.515239 -0.159187 -0.244455 0 255 0
-0.837011 -0.306695 0.165650 0 127 127
-0.409988 -0.024716 -0.254870 0 255 0
0.815519 0.381360 -0.256805 127 0 127
0.588008 0.317475 -0.164605 153 76 0
0.574770 0.146791 -0.254870 0 255 0
-0.536532 0.251991 0.224225 255 0 0
-0.484579 0.095777 0.225320 0 0 255
0.749456 -0.407302 0.137433 76 0 153
-0.776623 -0.114487 0.225256 0 0 255
0.204916 -0.182947 -0.254870 0 255 0
-0.415081 -0.410117 0.137433 76 0 153
0.205785 -0.363463 -0.037559 127 127 0
0.146554 -0.374532 0.224225 127 127 0
-0.394652 -0.067872 0.224225 0 0 255
-0.251157 0.412847 -0.275700 204 51 127
0.780802 0.180359 0.224090 76 0 153
-0.684527 -0.485623 0.137433 76 0 153
-0.701519 0.353429 -0.143775 0 255 0
0.164332 0.435029 0.213844 0 255 0
0.163815 -0.340983 0.224225 127 0 127
0.813438 0.435029 -0.161981 127 0 127
0.815519 0.161849 0.076678 127 0 127
-0.813065 -0.363463 -0.095193 127 127 0
0.615729 -0.227074 -0.254870 0 255 0
0.386347 0.130373 0.244997 76 153 0
-0.273897 -0.157554 -0.244455 0 255 0
-0.104820 0.397566 0.224225 0 255 0
-0.516815 0.306576 0.157054 127 127 0
0.541431 -0.250660 0.225320 76 153 0
-0.572678 -0.435833 0.137433 76 0 153
0.193615 -0.096128 0.233085 127 0 127
-0.823124 0.172601 -0.169022 0 127 127
-0.837011 0.177160 0.139737 0 127 127
-0.131582 0.285471 0.239420 204 51 127
0.133291 -0.161401 -0.244455 0 255 0
0.815519 0.406161 -0.016353 127 0 127
0.103393 -0.213104 0.233085 127 0 127
-0.823124 -0.265014 0.084516 0 127 127
-0.265129 0.063074 -0.254870 0 255 0
-0.308712 0.325795 0.203395 153 76 0
0.270086 -0.046843 0.224225 127 0 127
0.801632 -0.311422 -0.041671 127 0 127
0.711607 0.238878 0.228334 76 153 0
-0.585608 -0.363463 0.029874 127 127 0
0.065637 0.215978 0.203395 255 0 0
-0.350743 -0.281660 -0.254870 0 255 0
0.477200 0.288348 0.203395 76 153 0
-0.361768 -0.359991 -0.266761 76 0 153
-0.738980 0.306576 0.183470 127 127 0
-0.225069 -0.363463 0.078339 127 127 0
0.763887 0.047515 0.243393 76 153 0
-0.001463 -0.363463 -0.189793 127 127 0
-0.261979 -0.186292 0.233085 0 255 0
-0.092202 0.311202 0.225320 204 51 127
0.547670 0.103212 0.225320 76 153 0
0.459868 0.006929 -0.244455 0 255 0
0.578191 0.015466 -0.244455 0 255 0
0.024296 0.038274 0.224225 127 0 127
0.127868 -0.363463 0.012011 127 127 0
-0.764263 0.400312 -0.211044 0 0 255
0.186874 -0.147781 0.233085 127 0 127
0.680378 0.306576 0.036687 76 0 153
0.765892 0.400312 0.082531 153 0 76
0.106246 0.371443 0.233085 204 51 127
0.730081 -0.316176 -0.254870 0 255 0
0.448296 0.157383 -0.244455 0 255 0
-0.522729 0.435029 0.223439 0 255 0
-0.711919 -0.244671 -0.244455 0 255 0
-0.580611 0.092187 -0.244455 0 255 0
-0.544974 0.094426 0.225320 0 0 255
-0.247565 0.071084 0.225320 0 255 0
-0.837011 -0.341013 -0.243651 0 127 127
0.685444 0.098094 0.233085 76 153 0
-0.205986 0.228149 0.239182 0 255 0
0.815519 -0.511896 -0.109869 153 76 0
-0.542404 -0.363463 0.056314 127 127 0
-0.324449 -0.162597 0.203395 153 76 0
-0.823124 -0.130115 -0.166491 0 127 127
0.815519 0.067925 -0.267906 127 0 127
-0.837011 0.211978 0.115575 0 127 127
-0.451127 -0.324691 0.225320 0 0 255
-0.698132 0.310234 -0.164605 0 255 0
0.336389 0.228463 0.232187 76 153 0
0.738611 -0.517408 -0.275700 76 0 153
-0.263118 0.180841 -0.244455 0 255 0
-0.626967 0.198296 0.239223 0 0 255
0.562425 -0.131948 0.233085 76 153 0
0.036724 -0.442214 0.137433 76 0 153
0.379926 -0.366503 0.224225 76 153 0
0.315430 -0.026077 0.224232 127 0 127
-0.242457 -0.363463 0.002109 127 127 0
0.801632 -0.206554 0.023054 127 0 127
-0.075281 -0.390241 0.239881 0 255 0
-0.381406 -0.321421 0.239222 0 0 255
0.019389 0.052926 -0.254870 0 255 0
0.658873 -0.082678 -0.244455 0 255 0
-0.823124 0.217213 -0.136952 0 127 127
0.752516 -0.498877 0.137433 76 0 153
0.675016 0.109868 -0.254870 0 255 0
-0.783200 0.352854 0.075881 0 0 255
-0.724271 -0.273949 -0.254870 0 255 0
-0.837011 0.084689 -0.169147 0 127 127
-0.181427 -0.073117 0.233085 0 255 0
-0.438372 0.309902 0.224225 204 51 127
0.774046 -0.364255 -0.275700 76 0 153
0.510847 0.058600 -0.254870 0 255 0
-0.316811 0.435029 0.209941 0 255 0
-0.207456 0.267286 0.224225 204 51 127
-0.404784 0.363185 -0.050859 255 0 0
0.305870 -0.282393 0.203395 76 153 0
-0.473786 -0.223055 0.233085 0 0 255
0.817255 0.102975 0.227038 76 153 0
0.682466 -0.089733 0.233085 76 153 0
0.694256 -0.142283 -0.254870 0 255 0
0.466004 0.408177 -0.275700 204 51 127
0.516276 0.337698 0.225320 76 153 0
-0.664287 -0.283535 0.225320 0 0 255
0.494819 0.329578 0.203395 76 153 0
0.063774 -0.089617 0.225320 127 0 127
0.735722 0.228458 0.238064 76 153 0
-0.384487 -0.363652 0.224225 127 127 0
-0.817112 -0.363463 -0.023233 127 127 0
0.164421 -0.363463 -0.224917 127 127 0
0.747543 0.131626 -0.244455 0 255 0
-0.723274 -0.363463 0.109452 127 127 0
0.364198 0.312540 0.224045 76 153 0
0.566542 -0.165935 -0.244455 0 255 0
-0.032993 0.409671 -0.254870 204 51 127
-0.266882 -0.363463 -0.231968 127 127 0
0.815519 -0.346046 0.160118 127 0 127
-0.413056 0.429972 0.224225 0 255 0
-0.823124 -0.167852 -0.221373 0 127 127
0.711575 0.166589 -0.244455 0 255 0
-0.444216 -0.203642 -0.244455 0 255 0
0.621365 0.349121 0.203395 76 153 0
0.190580 0.078581 -0.244455 0 255 0
0.747676 0.025882 0.233085 76 153 0
-0.178928 -0.197939 0.225320 0 255 0
-0.673331 -0.359545 -0.244455 0 255 0
-0.826102 -0.357078 0.224225 76 0 153
0.699815 -0.199256 0.233085 76 153 0
-0.680671 -0.425199 0.137433 76 0 153
-0.837011 0.161305 0.119689 0 127 127
-0.052276 -0.363463 0.149349 127 127 0
-0.755750 0.431170 -0.275700 204 51 127
-0.818937 -0.175272 -0.254870 0 255 0
0.625728 0.086743 -0.244455 0 255 0
0.618662 0.328406 0.233085 76 153 0
-0.331587 -0.011153 0.224225 153 76 0
-0.333340 0.245539 -0.254870 0 255 0
0.405352 -0.356519 0.216296 127 127 0
-0.823124 0.281449 -0.205077 0 127 127
0.218485 0.309367 0.225320 204 51 127
0.084994 -0.361955 0.239222 127 0 127
0.631912 0.216485 -0.254870 0 255 0
-0.658453 0.395903 -0.254870 0 255 0
0.699925 -0.194096 -0.254870 0 255 0
-0.407053 -0.363463 0.161785 127 127 0
-0.482085 -0.273663 0.233085 0 0 255
-0.365410 -0.330976 -0.254870 0 255 0
-0.439028 0.187100 0.224225 0 0 255
0.256330 -0.060464 -0.244455 0 255 0
-0.823124 -0.068184 -0.006895 0 127 127
-0.783576 0.414199 -0.237617 0 0 255
-0.837011 0.243584 -0.223416 0 127 127
-0.299445 -0.382688 -0.275700 76 0 153
-0.821241 0.350959 0.224225 204 51 127
0.641096 -0.363463 0.069340 127 127 0
-0.791497 0.390018 -0.275700 204 51 127
-0.418212 -0.363463 -0.144792 127 127 0
-0.823124 0.098258 -0.061744 0 127 127
0.362821 -0.006150 0.239354 76 153 0
0.292769 0.347840 -0.254870 0 255 0
0.202361 0.099591 0.233085 127 0 127
-0.684267 0.063787 0.233085 0 0 255
-0.029866 -0.208547 0.224225 0 255 0
0.729872 0.370893 -0.275700 204 51 127
0.527739 -0.376792 0.224225 76 153 0
0.595427 0.301368 0.027047 76 0 153
-0.639568 -0.233633 0.233085 0 0 255
0.581660 -0.363463 -0.157897 127 127 0
0.068906 0.277599 -0.244455 0 255 0
-0.823124 -0.006416 0.173936 0 127 127
-0.145445 0.019138 -0.244455 0 255 0
-0.525216 -0.205494 0.225320 0 0 255
-0.312954 0.145624 0.224225 153 76 0
-0.837011 0.319816 0.167305 0 127 127
-0.620701 0.321490 0.203395 204 51 127
0.243097 0.372067 -0.244455 0 255 0
0.753352 -0.382836 0.203395 127 127 0
0.109503 -0.363463 0.092211 127 127 0
-0.823124 -0.384479 0.081676 0 127 127
-0.837011 0.051526 -0.154066 0 127 127
-0.543945 -0.411249 0.137433 76 0 153
-0.369850 0.398096 -0.275700 204 51 127
0.798787 0.433662 0.203395 76 0 153
0.152019 0.034039 -0.254870 0 255 0
0.801632 0.370879 0.068116 127 0 127
0.429020 0.242593 0.239881 76 153 0
0.634373 0.306576 0.180016 76 0 153
-0.762370 0.318555 -0.131123 0 0 255
0.448954 -0.300290 -0.244455 0 255 0
0.340225 -0.085990 0.224225 76 153 0
-0.311543 0.020239 -0.244455 0 255 0
0.659771 -0.363463 -0.161429 127 127 0
0.314817 -0.013116 0.203395 76 153 0
0.811338 -0.253019 0.224225 76 153 0
0.202942 0.396374 -0.275700 204 51 127
0.383292 0.326306 -0.097097 153 0 76
0.312096 -0.050495 -0.254870 0 255 0
0.791670 0.156753 0.224225 76 153 0
-0.704558 0.285471 0.239014 0 0 255
-0.335942 -0.347633 -0.244455 0 255 0
-0.837011 0.350287 0.144381 0 127 127
0.144509 -0.521532 0.137433 76 0 153
0.528828 -0.149329 -0.244455 0 255 0
0.238373 -0.268077 0.233085 127 0 127
-0.084584 0.053300 0.233085 0 255 0
-0.664114 0.304670 0.224225 204 51 127
-0.054543 0.107178 -0.254870 0 255 0
0.620191 -0.363463 -0.184315 127 127 0
-0.494866 -0.363463 0.081665 127 127 0
-0.404784 0.309917 -0.129765 255 0 0
-0.823124 0.216991 0.197775 0 127 127
-0.385420 0.352116 0.224225 204 51 127
0.280877 0.208978 0.217050 76 153 0
0.340804 0.374936 -0.254870 0 255 0
0.117867 0.397119 -0.275700 204 51 127
-0.681946 0.183722 -0.244455 0 255 0
-0.763319 0.236197 -0.244455 0 255 0
0.692073 0.151861 0.225320 76 153 0
0.815519 0.227436 -0.102613 127 0 127
0.553447 0.374775 -0.275700 204 51 127
0.688075 0.306576 -0.014930 76 0 153
0.404122 0.352441 0.094355 153 0 76
0.387980 -0.431151 -0.275700 76 0 153
0.488775 0.050257 -0.254870 0 255 0
-0.389958 -0.229176 0.240012 0 0 255
0.550611 -0.443765 0.137433 76 0 153
0.799865 0.305484 0.224225 76 153 0
-0.430321 0.287481 -0.150071 0 255 0
0.634139 -0.373038 0.224225 127 127 0
-0.717990 -0.066899 -0.254870 0 255 0
0.354176 -0.363463 -0.082789 127 127 0
0.815519 0.102300 0.102548 127 0 127
0.716867 0.301368 0.160365 76 0 153
-0.429438 0.051417 -0.254870 0 255 0
-0.742352 -0.069047 -0.244455 0 255 0
-0.242357 0.207315 -0.244455 0 255 0
0.740877 0.290465 0.170958 76 0 153
-0.276122 -0.127330 -0.244455 0 255 0
0.041987 -0.363463 -0.184244 127 127 0
-0.650607 -0.242198 -0.244455 0 255 0
0.313838 0.254500 0.210772 255 0 0
0.801632 -0.213385 -0.002999 127 0 127
0.815519 -0.471572 0.031997 153 76 0
0.221781 -0.238826 0.225320 127 0 127
-0.117981 0.253187 0.239226 204 51 127
0.783059 0.062226 0.239283 76 153 0
0.131868 -0.045550 -0.254870 0 255 0
0.680859 -0.380745 0.203395 127 127 0
-0.824158 -0.398180 0.188692 0 127 127
0.192685 -0.441035 0.137433 76 0 153
-0.635987 0.353931 0.203395 204 51 127
0.625295 0.287481 0.214129 76 153 0
0.440644 0.252165 0.203395 255 0 0
-0.461688 -0.350136 -0.244455 0 255 0
-0.761485 -0.363161 -0.244455 0 255 0
0.786194 -0.071695 0.224225 76 0 153
-0.647183 0.187727 0.224225 0 0 255
-0.336268 0.302639 0.203395 153 76 0
-0.060377 0.386831 0.224225 204 51 127
-0.584337 0.326914 -0.254870 0 255 0
-0.523453 -0.086478 -0.244455 0 255 0
-0.276676 0.128490 -0.244455 0 255 0
0.815519 -0.231557 0.089982 127 0 127
0.232344 0.245805 -0.254870 0 255 0
0.601705 -0.038418 0.233085 76 153 0
0.768646 -0.363463 0.172938 127 127 0
-0.841045 -0.155304 0.203395 76 0 153
-0.591974 0.351708 -0.265149 204 51 127
-0.837011 -0.011783 -0.238257 0 127 127
-0.327438 -0.147496 -0.244455 0 255 0
-0.824947 0.435029 -0.029379 0 127 127
-0.837011 0.011050 -0.271793 0 127 127
-0.319492 0.189309 -0.254870 0 255 0
0.801632 -0.205218 0.147071 127 0 127
0.534788 0.245445 0.237294 76 153 0
0.721692 0.081531 -0.254870 0 255 0
0.399802 -0.275642 -0.254870 0 255 0
-0.823124 -0.265728 -0.196843 0 127 127
0.815519 0.351362 -0.199529 127 0 127
0.815519 -0.451313 -0.092805 153 76 0
0.815519 0.185886 0.166005 127 0 127
-0.783200 0.352848 0.110778 0 0 255
0.009696 0.400312 -0.251532 0 255 0
0.659773 -0.372625 0.224225 127 127 0
-0.230209 -0.076072 -0.254870 0 255 0
-0.823124 0.074088 -0.039406 0 127 127
0.005875 0.241287 -0.244455 0 255 0
0.436756 -0.363463 0.096376 127 127 0
-0.514392 0.223904 0.203395 255 0 0
-0.588355 0.370802 -0.149838 0 255 0
0.666700 -0.337653 0.224225 76 153 0
0.694415 0.062474 0.233085 76 153 0
-0.648258 -0.108552 -0.244455 0 255 0
-0.431901 0.395478 0.203395 0 255 0
0.503472 0.416794 -0.275700 204 51 127
0.751556 -0.199331 -0.244455 0 255 0
0.040641 -0.363463 -0.146879 127 127 0
-0.767130 -0.384370 0.137433 76 0 153
0.262190 0.163663 0.244095 127 0 127
0.815519 -0.060483 -0.105665 127 0 127
-0.837011 -0.303929 -0.141405 0 127 127
-0.490102 0.370802 -0.163368 0 255 0
-0.823124 -0.096951 0.110787 0 127 127
0.688915 0.377062 -0.275700 204 51 127
-0.837011 0.223212 0.019090 0 127 127
0.728779 0.205329 0.224225 76 153 0
-0.783200 0.337854 0.034376 0 0 255
-0.291285 0.280333 0.224225 204 51 127
0.606815 -0.341810 0.242615 76 153 0
-0.663651 -0.364843 0.239224 0 0 255
-0.138939 -0.349008 0.240635 0 255 0
-0.009487 0.198801 -0.244455 0 255 0
0.085718 -0.363463 0.041162 127 127 0
0.743409 0.362336 0.233085 76 153 0
0.740877 0.329397 -0.120207 76 0 153
0.648828 0.252370 0.203395 255 0 0
-0.823124 0.033098 0.089466 0 127 127
-0.769354 0.239235 0.239226 0 0 255
0.431536 -0.460309 -0.275700 76 0 153
-0.536011 -0.363463 0.145862 127 127 0
0.176103 0.223197 -0.254870 0 255 0
-0.208345 -0.363463 -0.134990 127 127 0
-0.161680 -0.385877 -0.275700 76 0 153
-0.783427 0.285471 0.224234 0 0 255
0.012574 -0.432964 -0.275700 76 0 153
0.801632 0.281530 0.119680 127 0 127
-0.481073 0.400847 0.224225 204 51 127
0.174206 -0.165822 0.225320 127 0 127
-0.404784 0.354824 -0.122011 255 0 0
-0.224897 0.400312 -0.254377 0 255 0
0.346694 -0.011127 -0.254870 0 255 0
-0.650362 -0.371648 -0.275700 76 0 153
0.213534 0.383779 0.243077 204 51 127
0.409038 0.316644 -0.143775 153 76 0
-0.224350 0.226643 0.203395 255 0 0
-0.712609 0.384426 0.224225 204 51 127
0.801632 -0.067317 -0.226762 127 0 127
-0.371526 0.230348 -0.254870 0 255 0
-0.408528 -0.149249 0.244888 0 0 255
0.286183 -0.154638 0.224225 127 0 127
-0.823124 0.031846 -0.009043 0 127 127
-0.157796 -0.261082 0.225320 0 255 0
0.615857 0.361965 0.225320 76 153 0
-0.116380 -0.187977 -0.254870 0 255 0
0.385426 0.340903 -0.254870 0 255 0
-0.823124 -0.371789 0.059255 0 127 127
-0.658815 0.306576 0.018106 127 127 0
0.383292 0.342816 0.072219 153 0 76
-0.527329 0.270349 -0.254870 0 255 0
0.539998 0.059197 0.225320 76 153 0
0.497887 0.200710 0.265205 153 0 76
-0.762370 0.361917 0.143837 0 0 255
-0.044678 -0.092856 0.239262 0 255 0
-0.837011 -0.154733 0.082997 0 127 127
-0.357108 -0.294858 0.224225 0 0 255
0.470378 0.306576 0.128610 76 0 153
0.815519 -0.080487 0.055387 127 0 127
-0.837011 -0.338103 0.044753 0 127 127
-0.237045 -0.363463 -0.054250 127 127 0
0.801632 0.413297 0.101998 127 0 127
-0.012474 -0.025260 -0.244455 0 255 0
0.404122 0.361890 -0.006578 153 0 76
0.141568 -0.337252 -0.254870 0 255 0
0.046244 -0.367752 -0.254870 0 255 0
-0.281266 -0.196929 -0.244455 0 255 0
0.041755 -0.363463 -0.057857 127 127 0
0.634231 -0.271804 -0.254870 0 255 0
-0.809318 0.093309 0.239223 0 0 255
-0.444520 0.306576 0.157034 127 127 0
0.815519 0.188194 0.128550 127 0 127
0.052579 0.066287 -0.254870 0 255 0
0.010076 -0.386036 0.237294 127 0 127
-0.823124 0.013127 -0.092195 0 127 127
-0.285760 0.170094 0.224225 0 255 0
0.248124 -0.363463 -0.211647 127 127 0
0.392214 -0.032036 0.233085 76 153 0
0.105770 -0.249498 -0.254870 0 255 0
0.132607 -0.288734 0.225320 127 0 127
-0.629202 0.209204 0.273740 255 0 0
-0.765947 -0.264959 0.225320 0 0 255
0.393200 -0.184889 0.225320 76 153 0
0.573328 0.278071 -0.254870 0 255 0
0.653282 0.301368 -0.127445 76 0 153
-0.273531 -0.041998 0.225320 0 255 0
0.155956 -0.110764 -0.254870 0 255 0
-0.404784 0.316810 0.065922 255 0 0
0.343315 -0.229036 0.224225 76 153 0
-0.494240 0.206048 -0.254870 0 255 0
-0.837011 0.093987 0.025777 0 127 127
0.659724 0.285471 0.237971 76 153 0
0.354436 -0.201975 -0.254870 0 255 0
-0.841773 0.247710 0.224225 76 0 153
0.683081 -0.362060 -0.275700 76 0 153
-0.135430 -0.522902 -0.275700 76 0 153
0.763117 -0.042505 0.224225 76 153 0
-0.783200 0.303881 -0.136921 0 0 255
-0.796146 -0.394658 -0.275700 76 0 153
0.815519 0.306856 -0.136921 127 0 127
-0.285555 0.203878 0.224225 0 255 0
-0.287608 -0.126887 0.224225 0 255 0
-0.385824 0.269337 0.241101 0 0 255
0.697961 -0.412491 -0.275700 76 0 153
-0.776623 0.011398 0.239831 0 0 255
-0.360385 0.064088 -0.254870 0 255 0
-0.193038 0.369803 -0.244455 0 255 0
0.313072 -0.200575 -0.254870 0 255 0
-0.831008 -0.424885 -0.275700 153 0 76
-0.837011 0.103798 -0.232653 0 127 127
-0.555229 -0.190147 0.233085 0 0 255
0.064969 -0.169071 0.233085 127 0 127
-0.837011 -0.006931 -0.208133 0 127 127
0.250149 -0.315306 0.225320 127 0 127
0.441346 0.306576 0.102278 76 0 153
0.604311 -0.113888 0.233085 76 153 0
0.750086 0.414199 -0.234354 153 0 76
-0.608245 -0.363463 -0.165535 127 127 0
-0.416102 0.387041 -0.275700 204 51 127
0.600326 0.199503 0.224225 76 153 0
-0.419938 -0.327183 -0.254870 0 255 0
-0.837011 0.363766 -0.143408 0 127 127
-0.481710 -0.098608 -0.254870 0 255 0
-0.837011 0.118669 0.092871 0 127 127
-0.601682 0.414832 0.203395 0 255 0
-0.226603 0.116118 0.225320 0 255 0
0.801632 0.407780 0.161591 127 0 127
-0.430626 0.301368 0.080343 127 127 0
0.257384 0.136441 0.244606 127 0 127
-0.010746 -0.258353 0.228598 0 255 0
0.783824 -0.211854 0.239221 76 153 0
-0.362895 0.254958 0.203395 153 76 0
0.815519 0.050986 -0.064769 127 0 127
-0.682316 -0.363463 -0.021901 127 127 0
-0.338759 0.400312 -0.254075 0 255 0
-0.002576 -0.282269 -0.254870 0 255 0
-0.267863 -0.423359 0.137433 76 0 153
-0.341857 0.157969 0.224225 153 76 0
-0.031796 -0.369641 -0.254870 0 255 0
0.406466 0.329280 0.233085 76 153 0
0.801632 0.108986 0.201030 127 0 127
-0.650812 0.106623 -0.244455 0 255 0
0.298376 -0.056782 0.224225 127 0 127
-0.434263 -0.428866 0.137433 76 0 153
-0.837011 0.074363 0.059754 0 127 127
-0.841500 0.046637 0.203395 76 0 153
-0.802203 -0.278656 -0.254870 0 255 0
0.537522 0.176539 -0.254870 0 255 0
0.408982 0.370802 0.221467 76 153 0
0.533896 -0.363463 0.196347 127 127 0
0.013128 -0.363463 -0.044367 127 127 0
0.814292 0.424138 0.239881 76 153 0
0.006733 0.246625 0.203395 255 0 0
-0.583504 0.360251 0.224225 204 51 127
-0.156824 -0.371367 -0.254870 0 255 0
0.801632 -0.280013 -0.152112 127 0 127
-0.453039 -0.363463 0.052251 127 127 0
-0.314068 0.055167 0.224225 153 76 0
0.755130 -0.277042 0.239256 76 153 0
-0.078334 -0.311265 0.233085 0 255 0
0.788853 0.400312 -0.249845 153 0 76
-0.256909 0.116967 0.233085 0 255 0
-0.762370 0.312184 -0.155522 0 0 255
0.630555 -0.335875 0.244880 76 153 0
-0.644489 -0.150023 0.233085 0 0 255
0.760305 -0.454260 0.137433 76 0 153
0.692969 0.292452 0.224225 76 153 0
0.506162 0.358553 -0.143775 153 76 0
0.348581 -0.153504 0.224225 76 153 0
0.383292 0.306640 0.175240 153 0 76
-0.837011 0.090756 0.159327 0 127 127
0.191295 -0.363463 0.173742 127 127 0
0.605147 -0.363463 -0.041505 127 127 0
-0.667948 0.306576 0.106173 127 127 0
-0.242636 -0.352471 0.239981 0 255 0
0.387715 -0.238216 0.244593 76 153 0
0.801632 0.100981 0.168760 127 0 127
0.815519 -0.122857 -0.119307 127 0 127
-0.537978 -0.317734 0.233085 0 0 255
-0.569712 0.410546 0.224225 204 51 127
-0.428143 -0.363463 -0.037953 127 127 0
-0.641396 -0.280995 0.233085 0 0 255
0.273978 0.267710 0.224225 204 51 127
0.718311 0.412062 0.081776 153 0 76
0.451248 -0.102333 0.233085 76 153 0
-0.823124 0.286319 0.008415 0 127 127
-0.486652 -0.068127 0.233085 0 0 255
-0.747882 -0.023328 0.233085 0 0 255
0.801632 0.329920 -0.191895 127 0 127
0.801632 0.359015 -0.153710 127 0 127
-0.307235 -0.438509 -0.275700 76 0 153
0.532778 0.212840 0.223393 255 0 0
0.269175 -0.122168 0.241672 127 0 127
0.801632 -0.380515 0.115147 127 0 127
0.685131 -0.298401 0.233085 76 153 0
-0.326965 -0.467199 -0.275700 76 0 153
-0.838421 0.060367 0.225116 0 0 255
0.033997 -0.058622 0.240792 127 0 127
-0.086599 0.192805 0.224225 0 255 0
0.141227 -0.129970 -0.254870 0 255 0
-0.248747 -0.052708 0.233085 0 255 0
0.632332 -0.095616 0.225320 76 153 0
0.664446 -0.321446 -0.254870 0 255 0
-0.177829 0.415391 0.224225 204 51 127
-0.771574 0.400312 0.163615 0 0 255
-0.823124 0.290939 0.157078 0 127 127
0.457653 0.301368 0.084645 76 0 153
-0.581578 -0.127150 -0.244455 0 255 0
0.815519 -0.039300 -0.171096 127 0 127
-0.130469 0.130082 -0.244455 0 255 0
-0.326357 -0.100127 0.239232 0 255 0
0.053116 0.262753 0.224225 204 51 127
0.804483 0.175891 0.224225 76 153 0
0.788312 0.400312 0.005555 153 0 76
-0.361939 0.020862 0.224225 0 0 255
-0.539958 0.333602 -0.164605 0 255 0
-0.294917 -0.012198 0.240623 0 255 0
-0.192183 -0.335538 0.224225 0 255 0
-0.658942 0.345565 0.203395 204 51 127
-0.245152 0.366003 -0.275700 204 51 127
0.198000 -0.286614 0.233085 127 0 127
0.740877 0.292905 -0.013727 76 0 153
0.141559 -0.363463 -0.222248 127 127 0
0.815519 -0.311632 -0.251976 127 0 127
-0.731014 -0.363463 0.004756 127 127 0
0.764476 -0.083605 -0.254870 0 255 0
0.707548 0.407764 0.203395 0 255 0
0.298756 0.238894 0.238324 204 51 127
0.599037 0.301368 -0.017260 76 0 153
-0.337083 0.053416 -0.244455 0 255 0
0.607192 -0.499169 -0.275700 76 0 153
0.119416 0.288473 0.233085 204 51 127
-0.837011 0.125587 0.117077 0 127 127
-0.823124 -0.244361 -0.268776 0 127 127
-0.794472 0.411208 0.224225 204 51 127
0.740770 -0.224891 -0.244455 0 255 0
0.441294 -0.042468 -0.254870 0 255 0
0.047866 -0.180686 0.244995 127 0 127
0.801632 -0.313265 0.060317 127 0 127
0.802134 0.009158 0.224225 76 0 153
0.355335 0.062343 0.224225 76 153 0
0.586646 -0.363463 -0.092644 127 127 0
-0.269109 0.051745 0.233085 0 255 0
0.801632 0.011242 -0.167582 127 0 127
0.461597 0.199042 0.239223 76 153 0
-0.016909 -0.197180 -0.254870 0 255 0
0.016928 -0.499147 -0.275700 76 0 153
0.218140 -0.363463 0.007888 127 127 0
-0.201860 0.216190 -0.244455 0 255 0
-0.243160 -0.363463 0.117958 127 127 0
-0.748939 0.301368 0.039564 127 127 0
-0.783200 0.367632 -0.001164 0 0 255
0.710090 -0.079516 0.233085 76 153 0
0.110336 0.067686 0.225320 127 0 127
-0.354002 0.336651 -0.244455 0 255 0
0.633846 0.375482 0.233085 76 153 0
0.496945 -0.319013 0.233085 76 153 0
0.364198 0.102223 0.222037 76 153 0
0.599164 -0.363463 -0.222064 127 127 0
-0.837011 -0.332720 -0.193798 0 127 127
-0.210918 0.351951 -0.254870 0 255 0
0.671525 0.337491 -0.244455 0 255 0
0.801632 0.314465 -0.218502 127 0 127
-0.837011 0.095432 0.131429 0 127 127
-0.057016 0.070121 0.224225 0 255 0
0.168723 0.223145 0.224225 127 0 127
-0.837011 -0.473786 -0.032825 153 0 76
0.578434 0.429758 0.238655 76 153 0
0.520436 0.287481 -0.146212 153 76 0
-0.199084 0.210456 0.224225 0 255 0
0.708889 0.334981 -0.143775 153 76 0
0.801632 -0.358525 -0.250830 127 0 127
-0.823124 -0.012999 -0.145415 0 127 127
-0.432021 0.306576 -0.105184 127 127 0
-0.714646 -0.062411 0.233085 0 0 255
0.476257 0.278847 0.224225 76 153 0
0.214562 0.400064 0.224225 204 51 127
0.481713 -0.314456 -0.254870 0 255 0
0.496779 0.146672 0.233085 76 153 0
-0.223546 -0.501966 0.137433 76 0 153
0.046903 0.112523 0.244979 127 0 127
0.610884 -0.252650 0.225320 76 153 0
0.588877 0.367671 0.233085 76 153 0
-0.688012 0.245068 0.238833 0 0 255
-0.837011 0.369300 -0.082013 0 127 127
0.744348 -0.027957 -0.254870 0 255 0
0.782478 0.345679 0.224225 76 153 0
0.685882 0.407826 0.265290 0 127 127
0.815519 -0.468827 -0.264073 153 76 0
-0.733661 0.131376 -0.244455 0 255 0
-0.664799 -0.363463 0.192701 127 127 0
0.475101 -0.086653 0.225320 76 153 0
0.698546 0.301368 -0.110623 76 0 153
-0.832798 0.435029 -0.124250 0 127 127
-0.149204 -0.232438 -0.254870 0 255 0
0.815519 -0.069906 0.112592 127 0 127
0.065812 -0.286434 0.225320 127 0 127
0.515425 0.301368 -0.034409 76 0 153
-0.427558 -0.375042 0.203395 127 127 0
0.633927 0.333013 -0.254870 0 255 0
-0.787831 0.429821 0.236668 204 51 127
-0.823124 -0.370776 -0.203127 0 127 127
-0.210051 0.392494 0.243191 204 51 127
0.761459 -0.065931 0.244354 76 153 0
-0.719621 -0.137711 -0.244455 0 255 0
-0.475493 0.144406 0.225320 0 0 255
0.290969 -0.214596 0.239225 127 0 127
-0.747813 0.266891 -0.244455 0 255 0
-0.404784 0.359931 0.149027 255 0 0
-0.020714 0.268475 0.224225 204 51 127
-0.823124 -0.243551 0.142658 0 127 127
0.678170 0.401914 0.224225 76 153 0
-0.422131 0.287481 -0.001453 255 0 0
-0.465551 -0.193365 -0.244455 0 255 0
0.404122 0.306719 -0.067045 153 0 76
0.544488 0.154113 0.225320 76 153 0
0.654324 0.268075 0.224225 76 153 0
-0.301379 -0.295004 0.224225 0 255 0
-0.330990 0.339177 0.237294 204 51 127
0.480605 0.378252 -0.275700 204 51 127
0.801632 0.108064 -0.224950 127 0 127
0.701518 0.353472 0.224225 76 153 0
-0.254008 -0.363463 -0.124090 127 127 0
0.159574 0.400312 -0.248461 0 255 0
0.472874 0.190704 -0.244455 0 255 0
0.307446 -0.322509 0.203395 76 153 0
0.307453 -0.375897 -0.244455 0 255 0
-0.837011 -0.441870 -0.232450 153 0 76
-0.507491 0.422593 -0.275700 204 51 127
-0.641229 -0.325612 -0.254870 0 255 0
0.597505 0.357619 -0.164605 153 76 0
-0.769248 0.221330 0.224225 255 0 0
-0.056237 0.424625 -0.275700 204 51 127
-0.575575 0.167733 -0.244455 0 255 0
-0.316272 0.063892 -0.254870 0 255 0
0.801632 0.380928 0.158176 127 0 127
-0.823124 0.137125 -0.221088 0 127 127
0.757179 -0.363463 -0.208124 127 127 0
-0.705093 -0.328260 -0.254870 0 255 0
-0.608487 0.401293 -0.254870 204 51 127
0.730650 0.323671 0.225320 76 153 0
0.350786 0.262038 0.224225 76 153 0
0.307981 -0.119054 0.224225 76 153 0
0.628308 0.418908 0.239232 76 153 0
-0.837011 0.387947 0.028295 0 127 127
0.005857 -0.356519 0.209046 127 127 0
-0.250807 0.225430 0.239881 0 255 0
-0.837011 -0.077109 0.124781 0 127 127
0.489165 -0.359991 -0.273775 76 0 153
-0.506345 -0.363463 -0.051352 127 127 0
-0.711132 0.310726 0.225320 204 51 127
-0.024168 -0.171527 -0.254870 0 255 0
-0.843955 0.360544 0.217089 76 0 153
-0.837011 -0.006972 0.091765 0 127 127
0.691432 0.368530 -0.244455 0 255 0
-0.262642 -0.449925 0.137433 76 0 153
0.708014 -0.356519 0.216127 127 127 0
0.801719 0.435029 0.175340 127 0 127
0.317310 -0.248074 0.238382 127 0 127
0.815519 0.126634 0.000341 127 0 127
0.690906 -0.271691 -0.244455 0 255 0
-0.660732 0.261012 0.239582 0 0 255
0.815519 0.062067 -0.194916 127 0 127
-0.566929 -0.392972 0.234173 0 0 255
0.699234 0.323185 0.203395 76 153 0
0.454936 -0.082718 -0.254870 0 255 0
0.353307 0.181778 -0.244455 0 255 0
-0.796908 -0.349499 0.240206 0 0 255
-0.425614 0.342750 0.185075 255 0 0
0.815519 0.203316 -0.120903 127 0 127
-0.763652 0.400312 0.023193 0 0 255
-0.350536 -0.390815 -0.275700 76 0 153
0.088290 -0.398180 0.223214 127 127 0
-0.318359 -0.363463 0.015870 127 127 0
0.424842 0.301368 0.181408 76 0 153
0.383292 0.341149 0.134961 153 0 76
-0.675902 0.293822 -0.244455 0 255 0
0.815519 -0.139668 -0.221000 127 0 127
0.801632 0.234454 0.016497 127 0 127
-0.612274 0.300175 -0.143775 0 255 0
-0.401014 -0.052156 0.242817 0 0 255
0.801632 0.115797 -0.117426 127 0 127
0.801632 0.188540 0.008532 127 0 127
0.358452 -0.249375 0.203395 76 153 0
0.078809 0.002479 -0.254870 0 255 0
0.815519 0.241784 -0.138570 127 0 127
-0.739005 0.297126 -0.164605 0 255 0
-0.498461 -0.101658 0.233085 0 0 255
-0.466944 -0.005077 -0.254870 0 255 0
0.201756 0.254500 0.219709 255 0 0
0.253267 -0.087508 -0.244455 0 255 0
0.009109 0.414460 0.239225 204 51 127
-0.659190 -0.329894 0.225320 0 0 255
-0.420249 0.287481 -0.087080 255 0 0
0.543252 -0.452896 -0.275700 76 0 153
0.538511 -0.083040 -0.244455 0 255 0
0.761707 0.308212 0.207395 76 0 153
0.481918 0.099689 -0.244455 0 255 0
0.043858 -0.363463 0.195410 127 127 0
-0.837011 0.059227 -0.204645 0 127 127
0.815519 -0.191327 -0.116885 127 0 127
-0.712609 0.305529 -0.254870 0 255 0
-0.837011 0.363715 0.092935 0 127 127
0.438717 -0.363463 -0.189295 127 127 0
0.759919 0.400312 0.118623 153 0 76
-0.029207 -0.363463 0.076336 127 127 0
0.731383 -0.083907 -0.244455 0 255 0
0.801632 -0.353130 -0.105845 127 0 127
0.569929 -0.375219 0.239229 76 153 0
-0.761905 -0.319218 0.225320 0 0 255
0.506785 -0.235675 -0.244455 0 255 0
-0.830408 0.183821 -0.275700 0 127 127
0.822462 -0.277209 0.210723 76 0 153
0.154058 -0.359991 -0.266165 76 0 153
-0.467552 -0.168110 -0.244455 0 255 0
0.801632 -0.286077 0.088749 127 0 127
0.424975 -0.291275 0.233085 76 153 0
0.815519 -0.430619 -0.029118 153 76 0
-0.837011 0.259722 0.118362 0 127 127
0.125403 0.272488 -0.254870 0 255 0
-0.762370 0.333904 0.172417 0 0 255
-0.284244 -0.162747 0.243872 0 255 0
0.527999 -0.398180 0.216875 127 127 0
-0.385690 -0.276933 0.207687 153 76 0
-0.120420 -0.142400 0.225320 0 255 0
0.815519 -0.400482 0.001659 153 76 0
-0.837011 0.224840 0.150594 0 127 127
0.080988 -0.363463 0.184179 127 127 0
0.815519 0.208617 -0.075959 127 0 127
0.649171 -0.382099 -0.275700 76 0 153
0.801632 0.063876 -0.234863 127 0 127
-0.605257 0.333281 -0.164605 0 255 0
-0.190866 0.250583 0.203395 255 0 0
0.146830 0.247919 0.239193 204 51 127
0.022373 -0.507290 0.137433 76 0 153
-0.783200 0.300640 -0.106247 0 0 255
0.815519 0.297415 0.061374 127 0 127
-0.629453 -0.183511 -0.254870 0 255 0
0.801632 -0.157687 0.123397 127 0 127
-0.266013 -0.361941 -0.275700 76 0 153
-0.323390 0.142833 0.203395 153 76 0
0.019019 0.266444 -0.244455 0 255 0
-0.837011 0.389913 -0.191440 0 127 127
0.574127 -0.464551 0.137433 76 0 153
-0.434402 0.160313 0.225320 0 0 255
-0.044105 -0.124923 0.239221 0 255 0
-0.407484 0.411412 -0.254870 204 51 127
0.349212 0.130966 0.224225 76 153 0
0.815519 -0.065150 -0.189053 127 0 127
0.755130 -0.178172 0.225220 76 153 0
0.801632 0.078312 0.024644 127 0 127
-0.425614 0.337455 0.137961 255 0 0
-0.814823 0.330006 -0.254870 0 255 0
0.801632 0.200784 0.184438 127 0 127
0.801632 0.366549 -0.108468 127 0 127
0.354125 0.217030 0.224225 76 153 0
-0.328888 -0.363463 0.123415 127 127 0
0.469000 0.435029 -0.255088 204 51 127
0.473689 -0.331340 0.242962 76 153 0
0.728663 -0.276553 -0.244455 0 255 0
0.096911 0.179163 0.242003 127 0 127
-0.036926 0.198488 0.239225 0 255 0
0.227043 -0.291189 0.225320 127 0 127
-0.837011 0.060784 -0.102286 0 127 127
0.135455 -0.137832 0.233085 127 0 127
-0.837011 0.419039 -0.273799 0 127 127
0.216321 -0.363463 -0.220744 127 127 0
-0.317780 0.250402 0.203395 255 0 0
-0.670429 -0.385628 0.203395 127 127 0
0.066008 -0.350759 -0.244455 0 255 0
-0.657382 0.287481 -0.147523 0 255 0
0.801632 0.287806 -0.199754 127 0 127
0.781555 -0.096212 0.224225 76 153 0
-0.747796 -0.476921 -0.275700 76 0 153
0.575783 0.420301 -0.275700 204 51 127
-0.255460 0.323494 -0.244455 0 255 0
-0.767915 0.045184 -0.254870 0 255 0
0.332943 -0.263301 0.224225 76 153 0
0.255894 0.233801 -0.244455 0 255 0
0.801632 0.044590 0.180200 127 0 127
0.411593 0.371647 -0.254870 0 255 0
0.815519 -0.192082 0.048767 127 0 127
-0.331385 0.075531 0.224225 0 255 0
0.031435 -0.229089 -0.254870 0 255 0
0.587759 0.291976 -0.143775 153 76 0
-0.538153 0.189873 0.224225 0 0 255
-0.363994 -0.363463 0.067746 127 127 0
-0.837011 -0.054693 0.176216 0 127 127
-0.837011 0.010489 0.000680 0 127 127
-0.468351 -0.056867 -0.244455 0 255 0
-0.500088 0.141137 0.233085 0 0 255
0.415117 -0.094238 -0.244455 0 255 0
-0.661692 -0.316296 -0.244455 0 255 0
-0.758980 0.333345 -0.164605 0 255 0
0.806657 -0.413825 0.137433 153 76 0
0.783417 -0.161139 0.224225 76 0 153
0.815519 0.162466 -0.099531 127 0 127
0.611466 0.411768 0.224225 76 153 0
0.547359 0.227804 -0.254870 0 255 0
0.285102 0.067881 -0.254870 0 255 0
0.426560 0.320232 0.203395 76 153 0
-0.546863 -0.134362 0.225320 0 0 255
-0.648536 0.306576 -0.089502 127 127 0
0.815519 -0.340613 -0.018029 127 0 127
-0.556546 0.197666 -0.244455 0 255 0
0.822462 -0.323778 0.218373 76 0 153
-0.080479 0.380103 -0.244455 0 255 0
0.239063 0.250852 0.203395 255 0 0
-0.823124 -0.037710 0.021655 0 127 127
-0.721997 0.289117 0.225320 0 0 255
0.801632 0.145136 -0.042174 127 0 127
0.091243 -0.356815 -0.244455 0 255 0
0.815519 0.016154 0.121488 127 0 127
-0.060124 -0.363463 0.101061 127 127 0
0.498044 0.287481 -0.151852 153 76 0
-0.510365 -0.363463 0.172103 127 127 0
0.685888 0.261396 -0.254870 0 255 0
0.761707 0.322647 0.050022 76 0 153
0.649012 0.315288 -0.164605 153 76 0
0.482503 -0.084527 -0.254870 0 255 0
-0.161175 -0.375946 0.224225 0 255 0
-0.451579 -0.270919 0.233085 0 0 255
0.705468 0.396519 -0.254870 0 255 0
-0.184591 -0.382557 0.203395 127 127 0
0.738716 0.400312 -0.064428 153 0 76
-0.762370 0.307212 -0.066503 0 0 255
-0.762370 0.351109 -0.088885 0 0 255
0.636226 0.306576 -0.071338 76 0 153
0.761707 0.333091 0.168500 76 0 153
0.405548 -0.330848 0.238574 76 153 0
0.250290 0.198183 -0.244455 0 255 0
0.675075 -0.221241 -0.244455 0 255 0
-0.823124 0.130069 0.142857 0 127 127
0.815519 0.035653 0.063255 127 0 127
-0.425614 0.328209 -0.077298 255 0 0
-0.331843 0.116136 -0.254870 0 255 0
0.404122 0.370204 0.046353 153 0 76
-0.117487 0.394875 -0.275700 204 51 127
-0.561572 -0.433209 -0.275700 76 0 153
-0.481182 0.359939 -0.254870 0 255 0
0.284683 -0.364735 0.224225 127 127 0
0.571855 0.405856 -0.254870 204 51 127
-0.475800 0.341206 -0.164605 0 255 0
-0.837011 0.299113 -0.036832 0 127 127
0.574167 0.198324 -0.244455 0 255 0
0.815519 0.403669 0.126702 127 0 127
0.629407 0.370034 0.203395 76 153 0
-0.520066 -0.348535 -0.244455 0 255 0
-0.382248 0.294932 0.203395 153 76 0
0.475592 -0.167462 0.233085 76 153 0
0.701582 0.130504 -0.244455 0 255 0
-0.277094 0.117646 0.242773 0 255 0
0.785069 -0.009226 0.224225 76 153 0
-0.530013 0.060954 -0.254870 0 255 0
-0.088598 0.394597 0.242481 204 51 127
0.113078 0.197832 0.274125 0 127 127
0.020742 0.182818 -0.254870 0 255 0
0.815519 -0.498310 -0.231850 153 76 0
-0.614968 -0.325432 0.225320 0 0 255
-0.105816 -0.468338 -0.275700 76 0 153
-0.777502 -0.363463 -0.153490 127 127 0
-0.100204 -0.363463 -0.032054 127 127 0
0.760742 0.370802 0.186856 76 0 153
-0.462847 0.139553 -0.244455 0 255 0
0.185805 0.426301 0.224225 0 255 0
0.568102 -0.217562 0.225320 76 153 0
0.801632 -0.338381 0.055253 127 0 127
0.748661 -0.363463 0.125334 127 127 0
0.133621 -0.447948 0.137433 76 0 153
0.056616 -0.238925 0.225320 127 0 127
-0.750230 0.337745 -0.244455 0 255 0
0.815519 0.311605 0.190454 127 0 127
0.153277 -0.337672 0.244158 127 0 127
-0.051878 0.341787 -0.244455 0 255 0
-0.240125 -0.398180 0.213453 127 127 0
-0.783200 0.340536 -0.111631 0 0 255
0.815519 0.086458 -0.036722 127 0 127
-0.837011 0.161645 0.171224 0 127 127
-0.116351 -0.363463 0.203104 127 127 0
-0.746602 -0.398180 0.220586 127 127 0
-0.199225 -0.363463 0.029281 127 127 0
-0.491497 0.287625 0.203395 204 51 127
0.485473 0.318549 -0.143775 153 76 0
-0.369034 0.429782 0.225922 204 51 127
-0.508685 0.273940 0.224225 0 0 255
-0.541590 -0.363463 0.099384 127 127 0
-0.354574 -0.023654 0.239662 0 0 255
0.136513 -0.000859 -0.254870 0 255 0
0.757957 0.062155 0.224225 76 153 0
-0.075771 -0.050637 -0.254870 0 255 0
-0.746401 0.428652 0.203395 0 255 0
0.087401 -0.363463 0.089007 127 127 0
0.815519 0.049115 -0.147848 127 0 127
-0.762370 0.292399 -0.015094 0 0 255
0.463230 0.249851 -0.254870 0 255 0
-0.034641 0.112928 0.239226 0 255 0
0.187414 -0.091301 -0.254870 0 255 0
-0.329149 -0.058131 0.224225 153 76 0
0.801025 -0.363463 -0.196158 127 127 0
0.759495 0.287481 0.005910 76 0 153
0.380663 -0.373580 -0.275700 76 0 153
-0.116371 0.013813 -0.244455 0 255 0
-0.040045 -0.359991 -0.273563 76 0 153
0.679053 -0.050887 -0.254870 0 255 0
-0.174042 -0.140835 -0.244455 0 255 0
-0.117871 0.123261 0.233085 0 255 0
-0.798848 0.388381 0.224225 204 51 127
0.440512 -0.130939 0.233085 76 153 0
0.309362 -0.091916 0.224225 76 153 0
0.642459 0.306576 0.096796 76 0 153
0.740877 0.366314 0.105442 76 0 153
-0.820469 -0.444550 -0.275700 76 0 153
0.264138 0.270225 -0.254870 0 255 0
-0.732405 0.043884 0.225320 0 0 255
-0.813793 -0.363463 -0.120728 127 127 0
0.404328 -0.312734 0.225320 76 153 0
0.231151 0.435029 0.220566 0 255 0
-0.702704 -0.493622 -0.275700 76 0 153
-0.377546 0.185038 0.224225 0 0 255
-0.715233 -0.401528 -0.275700 76 0 153
0.692457 0.301368 0.177442 76 0 153
0.239715 -0.484745 0.137433 76 0 153
-0.676666 0.006870 0.225320 0 0 255
0.469020 -0.122973 0.233085 76 153 0
-0.173264 -0.024856 0.225320 0 255 0
0.787820 0.435029 -0.260960 204 51 127
-0.823124 -0.194956 0.068178 0 127 127
0.581472 -0.345181 0.224225 76 153 0
-0.528411 0.397852 0.224225 0 255 0
0.772864 0.212840 0.215309 255 0 0
0.592487 0.301368 -0.090146 76 0 153
0.699845 -0.363463 -0.182026 127 127 0
0.629418 -0.391165 0.239875 76 153 0
0.169698 -0.363463 -0.176316 127 127 0
-0.385690 0.380755 0.213842 153 76 0
0.801632 -0.247027 0.201385 127 0 127
0.801632 0.226661 0.163954 127 0 127
-0.823124 -0.343116 -0.113220 0 127 127
0.710532 -0.223801 0.225320 76 153 0
-0.437100 0.074170 -0.254870 0 255 0
0.645502 0.332613 0.224225 76 153 0
0.757499 -0.347765 -0.244455 0 255 0
0.085599 -0.318745 0.225320 127 0 127
0.801632 0.365590 -0.216685 127 0 127
-0.656683 0.217614 0.239233 0 0 255
-0.629324 0.275276 -0.244455 0 255 0
0.761707 0.342918 0.059535 76 0 153
-0.488330 -0.197929 -0.254870 0 255 0
0.632803 0.176016 -0.254870 0 255 0
-0.783200 0.307188 0.181881 0 0 255
0.309932 -0.369379 -0.275700 76 0 153
-0.262947 0.394571 0.242490 204 51 127
-0.805845 0.414199 0.187117 0 0 255
-0.749850 -0.363463 -0.163768 127 127 0
0.801632 0.326144 0.045695 127 0 127
-0.371586 0.374157 0.239612 204 51 127
0.761707 0.336907 -0.146063 76 0 153
-0.837011 0.008220 0.155620 0 127 127
0.339740 0.414935 -0.254870 204 51 127
-0.781013 0.435029 -0.255000 204 51 127
0.815519 -0.178227 -0.182287 127 0 127
0.516527 -0.363463 0.154450 127 127 0
-0.008553 -0.421326 -0.275700 76 0 153
-0.112832 -0.238461 -0.254870 0 255 0
-0.741290 -0.381129 0.203395 127 127 0
-0.556306 -0.370682 0.224225 0 0 255
-0.143755 -0.178962 0.233085 0 255 0
0.775543 0.239844 0.224512 76 153 0
-0.623791 0.368010 0.224225 204 51 127
0.432379 0.140591 0.233085 76 153 0
-0.134137 -0.363463 -0.006267 127 127 0
-0.384634 0.234638 0.224225 255 0 0
-0.588170 0.273524 0.242291 0 0 255
-0.286553 -0.368969 -0.254870 0 255 0
0.737156 0.178685 0.224225 76 153 0
0.289286 0.289103 0.224225 76 153 0
0.503838 0.271967 -0.244455 0 255 0
-0.026763 -0.356519 0.212169 127 127 0
-0.037537 -0.388391 -0.275700 76 0 153
-0.444154 0.429821 0.226284 204 51 127
-0.294561 0.280708 -0.254870 0 255 0
0.674292 0.303600 -0.244455 0 255 0
0.472434 0.370200 -0.254870 0 255 0
0.815519 -0.252064 0.100756 127 0 127
-0.425098 -0.391190 0.239874 0 0 255
-0.684166 0.306576 -0.012612 127 127 0
-0.691930 -0.363463 -0.175823 127 127 0
0.329115 0.191881 0.224316 76 153 0
0.815519 0.351552 -0.117040 127 0 127
-0.823124 0.218385 -0.024899 0 127 127
0.815519 0.128867 -0.057198 127 0 127
0.644383 -0.016677 -0.254870 0 255 0
0.175321 0.321573 0.233085 204 51 127
0.815519 -0.410531 0.088456 153 76 0
-0.525879 0.331470 0.203395 204 51 127
-0.506662 0.175985 0.243048 0 0 255
0.478796 -0.371302 -0.254870 0 255 0
0.803901 0.435029 -0.063297 127 0 127
-0.837011 -0.196512 -0.041950 0 127 127
-0.465327 0.310868 -0.143775 0 255 0
0.083449 -0.109133 -0.244455 0 255 0
0.289794 -0.080375 0.224225 127 0 127
-0.837011 -0.090619 -0.110456 0 127 127
-0.837011 -0.422872 0.080945 153 0 76
-0.091408 -0.373904 0.203395 127 127 0
-0.361145 -0.117627 0.239233 0 0 255
0.379553 -0.141155 0.224225 76 153 0
-0.551100 0.285471 0.237798 0 0 255
-0.773288 0.370802 0.100861 0 0 255
0.578453 -0.412101 -0.275700 76 0 153
0.523029 0.306576 -0.100859 76 0 153
-0.512663 0.306576 0.089967 127 127 0
0.777764 -0.268413 0.239839 76 153 0
0.638405 -0.363463 0.015334 127 127 0
0.101049 -0.363463 -0.149681 127 127 0
-0.470842 0.284864 0.243186 0 0 255
0.815519 -0.044903 0.039018 127 0 127
-0.417118 0.315891 0.225320 204 51 127
0.761707 0.313956 -0.067682 76 0 153
-0.555175 0.351708 -0.274319 204 51 127
0.800664 -0.127391 0.224225 76 153 0
-0.071901 -0.088061 0.243679 0 255 0
0.421128 -0.222529 0.233085 76 153 0
-0.029229 0.166637 -0.254870 0 255 0
0.755253 -0.028011 0.241942 76 153 0
-0.158047 0.268694 -0.254870 0 255 0
0.561645 0.235332 0.203395 255 0 0
0.377301 0.198931 0.239223 76 153 0
0.429385 -0.015603 -0.244455 0 255 0
0.404122 0.296760 0.140250 153 0 76
-0.470124 -0.033376 0.225320 0 0 255
0.170333 0.193184 0.224225 127 0 127
0.661571 0.365804 -0.164605 153 76 0
-0.762370 0.345315 -0.128434 0 0 255
-0.162666 0.245082 0.224225 204 51 127
-0.738952 -0.064048 0.225320 0 0 255
0.325746 0.293222 0.203395 76 153 0
0.061949 0.225827 0.224225 255 0 0
0.569354 0.307140 0.203395 76 153 0
-0.802407 -0.379884 0.203395 76 0 153
0.050875 -0.174269 -0.244455 0 255 0
-0.837011 0.001962 0.051276 0 127 127
0.815519 -0.189428 -0.035776 127 0 127
0.815519 -0.271687 0.032445 127 0 127
-0.823124 -0.300404 0.077134 0 127 127
-0.443831 0.435029 -0.259733 204 51 127
-0.450700 0.200593 0.239224 0 0 255
0.122519 0.206365 0.249090 0 127 127
-0.205343 0.430929 0.224225 0 255 0
0.164653 -0.223815 -0.254870 0 255 0
-0.230871 0.147569 0.225320 0 255 0
-0.752213 -0.435613 -0.275700 76 0 153
0.237424 -0.363463 -0.019615 127 127 0
-0.823124 0.383923 -0.120053 0 127 127
0.469125 -0.044778 -0.254870 0 255 0
0.498373 0.383228 0.240089 76 153 0
0.696872 -0.116352 0.225320 76 153 0
-0.354810 -0.164778 0.203395 153 76 0
-0.813881 -0.117461 -0.244455 0 255 0
-0.610575 -0.242343 0.233085 0 0 255
0.314912 -0.363463 -0.208288 127 127 0
-0.823124 -0.145390 -0.127615 0 127 127
0.815519 -0.226057 -0.184463 127 0 127
0.599168 0.184784 0.240577 76 153 0
-0.117645 -0.149568 -0.254870 0 255 0
-0.823124 -0.368873 0.203198 0 127 127
0.398189 -0.465959 0.137433 76 0 153
-0.136480 -0.070442 0.233085 0 255 0
0.632558 0.339970 -0.143775 153 76 0
-0.216898 -0.392653 0.224225 127 127 0
-0.837011 0.239172 -0.180633 0 127 127
-0.350368 -0.048789 -0.244455 0 255 0
-0.843955 -0.276410 0.203813 76 0 153
-0.437843 0.301368 0.005282 127 127 0
-0.823124 -0.177327 -0.018013 0 127 127
-0.505144 0.301368 0.051686 127 127 0
-0.837011 -0.236670 -0.025475 0 127 127
-0.823124 -0.115188 0.136059 0 127 127
-0.837011 0.039962 -0.240627 0 127 127
-0.659665 0.306576 0.133823 127 127 0
-0.003988 0.223849 0.224225 255 0 0
-0.126813 0.393647 0.203395 0 255 0
-0.500913 0.306576 0.122043 127 127 0
0.801632 -0.187742 -0.135027 127 0 127
0.469714 0.355011 0.225320 76 153 0
0.726336 0.407186 0.239652 76 153 0
-0.157851 -0.013397 -0.244455 0 255 0
-0.031915 -0.062601 0.224225 0 255 0
-0.579814 -0.105557 0.225320 0 0 255
0.761707 0.369437 -0.056886 76 0 153
0.088628 -0.160352 0.225320 127 0 127
-0.823124 -0.248591 0.051876 0 127 127
0.505811 0.278612 0.224225 76 153 0
-0.823124 0.348985 -0.027890 0 127 127
0.815519 -0.123793 -0.242343 127 0 127
-0.066707 -0.333088 -0.254870 0 255 0
0.383292 0.370548 0.140123 153 0 76
-0.837011 0.057132 -0.124807 0 127 127
-0.819947 0.178391 0.224225 76 0 153
0.570588 0.166000 0.225320 76 153 0
0.772106 0.032944 0.224225 76 153 0
0.727993 0.289464 0.225320 76 153 0
0.255645 0.112879 -0.244455 0 255 0
-0.823124 -0.226274 -0.069178 0 127 127
0.336598 0.336047 -0.254870 0 255 0
0.800413 -0.493699 0.137433 76 0 153
-0.483062 0.301368 -0.119104 127 127 0
-0.823124 0.023254 -0.252294 0 127 127
-0.215988 -0.323280 0.233085 0 255 0
-0.786437 -0.330134 0.224225 0 0 255
-0.837011 -0.035747 0.107174 0 127 127
-0.548455 -0.233389 0.225320 0 0 255
0.763697 0.219264 0.239218 76 153 0
-0.411361 -0.293966 0.225158 0 0 255
0.466556 0.229716 0.224225 255 0 0
-0.837011 0.181831 -0.254861 0 127 127
0.061682 -0.127615 0.225320 127 0 127
-0.578348 0.376343 -0.254870 0 255 0
0.801632 0.034294 0.001292 127 0 127
0.614143 0.096788 0.233085 76 153 0
-0.403874 0.344929 -0.244455 0 255 0
0.270713 -0.363463 0.183464 127 127 0
0.801632 0.038625 -0.125944 127 0 127
-0.404784 0.332300 0.155238 255 0 0
0.815519 -0.383446 -0.071599 127 0 127
0.404122 0.349215 0.019110 153 0 76
-0.781240 -0.179821 0.224225 0 0 255
-0.724170 0.170754 -0.254870 0 255 0
0.801632 -0.315451 -0.235432 127 0 127
0.600990 0.245957 -0.254870 0 255 0
0.052559 0.405662 0.203395 0 255 0
0.801632 -0.208553 -0.077801 127 0 127
-0.260117 -0.377229 0.224225 127 127 0
-0.596273 -0.172067 0.225320 0 0 255
0.486524 0.239094 0.225330 76 153 0
0.272014 0.424440 0.224225 0 255 0
-0.837011 -0.009541 -0.111120 0 127 127
-0.837011 -0.152084 -0.176954 0 127 127
-0.776894 0.001040 -0.254870 0 255 0
-0.567681 0.343547 0.233085 204 51 127
-0.407467 -0.282778 0.245054 0 0 255
0.432462 -0.399830 -0.275700 76 0 153
0.246605 -0.349833 -0.244455 0 255 0
0.314622 0.060738 -0.244455 0 255 0
0.328559 -0.363463 -0.063322 127 127 0
-0.117539 0.335155 -0.244455 0 255 0
0.488963 -0.057915 0.225320 76 153 0
-0.018983 -0.087938 -0.254870 0 255 0
0.761707 0.366943 -0.149992 76 0 153
0.305569 -0.295559 0.224225 76 153 0
0.580639 -0.092662 0.225320 76 153 0
0.360338 0.008432 0.203395 76 153 0
-0.161767 0.029321 -0.254870 0 255 0
0.500789 0.399109 0.273938 0 127 127
-0.837011 0.018937 0.074765 0 127 127
-0.837011 -0.218381 -0.258336 0 127 127
0.761707 0.295012 -0.162098 76 0 153
-0.257662 -0.407661 -0.275700 76 0 153
-0.762370 0.330262 0.117269 0 0 255
-0.306289 -0.072964 0.239221 0 255 0
-0.251659 -0.027123 -0.254870 0 255 0
-0.070107 -0.363463 0.127824 127 127 0
0.418374 0.435029 -0.257052 204 51 127
0.105017 -0.436631 0.137433 76 0 153
-0.224965 0.264633 0.240095 204 51 127
0.801632 0.341603 0.186650 127 0 127
-0.837011 -0.114318 -0.130543 0 127 127
-0.422006 -0.110344 0.225320 0 0 255
-0.823124 -0.362341 -0.261191 0 127 127
0.351339 0.032067 0.239226 76 153 0
-0.801616 -0.006374 -0.244455 0 255 0
0.441060 -0.363463 -0.228358 127 127 0
0.327833 0.364107 0.225611 76 153 0
0.617864 0.148823 -0.244455 0 255 0
0.801632 -0.028700 0.133465 127 0 127
-0.649028 0.306576 0.162754 127 127 0
