ply
format ascii 1.0
element vertex 1273
property float x
property float y
property float z
property uchar red
property uchar green
property uchar blue
end_header
-0.057141 0.395640 -0.275700 204 51 127
-0.713518 0.318243 0.233085 204 51 127
-0.246721 -0.464275 0.137433 76 0 153
-0.802294 0.267505 0.209097 76 0 153
0.591117 0.398673 0.272299 0 127 127
0.311838 -0.360504 -0.244455 0 255 0
0.250023 0.180310 0.241672 127 0 127
-0.665662 0.109861 -0.254870 0 255 0
0.338952 -0.292457 0.239233 76 153 0
-0.563465 0.301368 0.021504 127 127 0
0.815519 0.273245 -0.117637 127 0 127
0.666220 -0.370599 0.239227 127 127 0
-0.601538 0.306576 0.156940 127 127 0
0.822462 0.163037 0.209354 76 0 153
-0.656345 -0.351907 0.224225 127 127 0
0.815519 -0.079834 0.021381 127 0 127
-0.625378 0.288382 0.203395 204 51 127
0.244583 0.132543 0.225320 127 0 127
0.541677 -0.317508 -0.244455 0 255 0
-0.293351 -0.372933 -0.244455 0 255 0
0.801632 -0.075913 -0.106130 127 0 127
-0.691447 0.255080 -0.254870 0 255 0
-0.673407 0.364546 0.233085 204 51 127
0.561393 0.398300 0.203395 76 153 0
0.815519 -0.336598 -0.089193 127 0 127
0.801632 0.323922 0.106126 127 0 127
-0.823124 0.226458 -0.056273 0 127 127
0.498429 0.214462 0.203395 255 0 0
-0.264162 0.411240 -0.275700 204 51 127
-0.451441 0.301368 -0.118319 127 127 0
-0.664332 -0.152751 -0.244455 0 255 0
-0.688581 0.351708 -0.273939 204 51 127
-0.629322 0.358625 -0.275700 204 51 127
0.192861 -0.161963 -0.244455 0 255 0
-0.742179 -0.009172 0.225320 0 0 255
-0.365034 0.204231 -0.254870 0 255 0
-0.494852 -0.240713 0.233085 0 0 255
-0.550563 -0.078471 0.233085 0 0 255
0.713578 0.208374 0.274856 153 0 76
-0.174604 0.354308 -0.275700 204 51 127
0.011649 0.427346 -0.254870 204 51 127
-0.837011 -0.030261 0.016920 0 127 127
-0.353715 0.104518 0.203395 153 76 0
-0.507418 -0.268013 -0.254870 0 255 0
0.473975 -0.363463 0.005876 127 127 0
-0.023596 0.281819 -0.254870 0 255 0
-0.293992 0.194847 -0.254870 0 255 0
0.106366 0.009264 -0.254870 0 255 0
-0.127666 -0.175272 0.225320 0 255 0
-0.476828 0.418646 0.203395 0 255 0
0.481323 -0.164938 0.225320 76 153 0
0.416197 -0.190774 -0.254870 0 255 0
-0.115725 0.116653 0.225320 0 255 0
0.498896 -0.363463 0.118067 127 127 0
-0.823124 -0.238538 0.110509 0 127 127
0.635833 0.306576 0.034235 76 0 153
-0.384636 -0.322716 0.203395 153 76 0
-0.400879 0.018837 0.242773 0 0 255
0.720609 0.409851 0.274710 0 127 127
0.801632 0.069360 -0.162295 127 0 127
-0.189727 0.435029 -0.258179 204 51 127
-0.502275 0.306734 -0.244455 0 255 0
0.774864 -0.471097 0.137433 76 0 153
0.437101 0.322303 0.233085 76 153 0
0.294048 -0.103526 0.239227 127 0 127
0.815519 0.079845 0.085181 127 0 127
-0.431587 0.287481 -0.161987 0 255 0
-0.783158 0.287481 -0.003613 0 0 255
0.801632 -0.289090 -0.108064 127 0 127
0.316191 0.359390 0.203395 76 153 0
0.606367 -0.026668 -0.254870 0 255 0
-0.249243 -0.351746 0.240082 0 255 0
0.815519 -0.307839 -0.218827 127 0 127
0.785585 -0.113579 -0.254870 0 255 0
0.241610 -0.363463 -0.202305 127 127 0
-0.646483 -0.363463 0.159283 127 127 0
-0.809908 -0.363463 -0.138666 127 127 0
-0.672095 0.375771 -0.244455 0 255 0
0.631313 -0.515106 -0.275700 76 0 153
-0.509697 0.306576 -0.061318 127 127 0
-0.688727 0.328359 -0.164605 0 255 0
-0.823124 0.430707 0.184697 0 127 127
-0.196516 -0.363463 0.098007 127 127 0
-0.623398 0.400312 -0.248320 204 51 127
0.775858 0.138298 -0.254870 0 255 0
0.392802 -0.363463 -0.146170 127 127 0
-0.470659 -0.363463 -0.005245 127 127 0
-0.483826 0.063864 0.233085 0 0 255
0.209791 -0.368106 -0.275700 76 0 153
-0.269072 -0.115221 0.233085 0 255 0
-0.499835 0.301368 0.022964 127 127 0
-0.113998 0.202068 0.264850 127 127 0
0.815519 -0.160444 -0.188368 127 0 127
-0.307489 0.312833 0.241332 204 51 127
0.437983 -0.363463 -0.234759 127 127 0
0.801632 -0.357402 0.172000 127 0 127
0.588048 0.277533 -0.244455 0 255 0
0.193680 -0.491594 0.137433 76 0 153
-0.658580 -0.209666 0.225320 0 0 255
-0.328350 0.004790 -0.254870 0 255 0
0.481913 -0.078778 0.225320 76 153 0
-0.735449 0.370389 -0.164605 0 255 0
-0.696909 -0.394598 0.137433 76 0 153
0.142311 -0.342217 -0.254870 0 255 0
0.815519 -0.088400 0.179572 127 0 127
-0.503260 -0.363463 -0.176574 127 127 0
0.309494 0.197682 -0.244455 0 255 0
-0.448773 -0.003526 -0.254870 0 255 0
0.221409 0.316705 -0.254870 0 255 0
0.114049 -0.163910 -0.244455 0 255 0
-0.028158 0.406855 0.203395 0 255 0
0.043902 0.058752 0.243900 127 0 127
-0.823124 0.142899 0.170066 0 127 127
0.801632 -0.131211 0.048497 127 0 127
-0.819553 0.162361 0.239229 0 0 255
-0.833772 0.281020 0.239804 0 0 255
0.815519 0.158353 -0.046138 127 0 127
-0.823124 -0.102196 0.042944 0 127 127
0.438820 -0.363463 0.157125 127 127 0
0.391123 0.364627 -0.244455 0 255 0
0.039788 0.212840 0.215517 255 0 0
-0.484052 0.017128 -0.254870 0 255 0
0.621018 -0.263328 -0.244455 0 255 0
0.063339 -0.363463 0.197000 127 127 0
-0.699777 -0.393022 0.203395 127 127 0
0.604167 -0.142266 -0.254870 0 255 0
-0.664989 -0.364719 -0.275700 76 0 153
-0.754533 0.355587 -0.275700 204 51 127
0.703626 0.110807 -0.244455 0 255 0
0.474361 0.021914 -0.244455 0 255 0
0.600917 0.130872 0.225320 76 153 0
-0.030443 -0.036690 0.239229 0 255 0
-0.215469 -0.397493 0.203395 127 127 0
-0.161368 0.254500 0.208382 255 0 0
-0.530910 -0.363463 -0.113183 127 127 0
-0.783200 0.370437 0.146339 0 0 255
-0.158330 -0.424211 -0.275700 76 0 153
0.293686 -0.363463 0.052485 127 127 0
-0.175208 0.180223 -0.244455 0 255 0
-0.713384 -0.363463 0.015448 127 127 0
-0.204659 0.070983 0.233085 0 255 0
-0.112041 -0.302123 -0.244455 0 255 0
-0.655871 -0.363463 -0.150286 127 127 0
0.815519 -0.153312 0.130471 127 0 127
-0.823124 -0.215786 -0.146354 0 127 127
0.683476 0.336073 -0.164605 153 76 0
-0.435640 0.399681 0.261950 153 0 76
-0.565614 0.306576 0.082626 127 127 0
-0.778946 0.135694 0.244680 0 0 255
0.406207 0.142536 -0.254870 0 255 0
-0.489074 0.253056 0.203395 255 0 0
0.801632 0.314350 -0.092102 127 0 127
0.404122 0.327653 -0.065075 153 0 76
0.815519 0.263139 -0.228857 127 0 127
-0.251325 -0.363463 -0.026601 127 127 0
0.241769 0.399845 0.203395 0 255 0
-0.734892 -0.211750 0.225320 0 0 255
0.011960 0.393368 0.211191 0 255 0
-0.041152 -0.167694 0.224225 0 255 0
-0.085271 -0.414080 -0.275700 76 0 153
-0.127214 -0.363463 -0.093091 127 127 0
0.493468 0.306576 0.038586 76 0 153
-0.164583 -0.030314 0.233085 0 255 0
-0.618796 -0.392958 0.238263 0 0 255
-0.344800 -0.301040 0.203395 153 76 0
0.614564 -0.353862 0.239785 76 153 0
-0.193283 -0.131937 -0.244455 0 255 0
0.727971 0.306576 -0.000197 76 0 153
0.541277 -0.019915 -0.254870 0 255 0
-0.799795 0.221859 0.203395 76 0 153
0.637405 0.386893 -0.275700 204 51 127
0.463305 0.190494 0.239624 76 153 0
-0.813437 -0.238867 0.239226 0 0 255
-0.063554 -0.363463 -0.097358 127 127 0
0.650202 -0.363463 -0.171415 127 127 0
0.529004 -0.363463 -0.229351 127 127 0
0.741639 0.253516 0.203395 255 0 0
-0.838629 -0.145716 0.225525 0 0 255
-0.503571 0.301368 0.077554 127 127 0
0.536443 0.370802 -0.156122 153 76 0
0.815519 0.339046 -0.165246 127 0 127
-0.727075 0.306576 0.030850 127 127 0
0.483364 0.124864 -0.254870 0 255 0
0.475387 0.072299 0.225320 76 153 0
0.171059 0.204924 0.239227 127 0 127
-0.109009 0.147302 -0.254870 0 255 0
0.357434 -0.497415 -0.275700 76 0 153
0.515110 0.301368 -0.046255 76 0 153
-0.525812 0.091281 -0.244455 0 255 0
0.305129 0.339998 -0.244455 0 255 0
-0.795507 0.400312 -0.016927 0 0 255
0.230878 0.177445 -0.254870 0 255 0
0.483215 -0.246808 0.225320 76 153 0
0.529042 0.224570 0.239881 76 153 0
-0.763652 0.370802 0.002471 0 0 255
0.788442 0.385582 0.240711 76 153 0
0.468649 0.114093 0.225320 76 153 0
0.042821 0.335495 -0.244455 0 255 0
0.800788 -0.155397 -0.244455 0 255 0
-0.151089 0.093938 0.233085 0 255 0
0.108061 0.214385 0.224225 127 0 127
0.806360 -0.067243 0.239233 76 153 0
0.280877 -0.229808 0.212994 76 153 0
0.419948 0.287481 -0.163808 153 76 0
-0.779475 0.399036 0.203395 0 0 255
-0.578373 -0.363463 -0.129702 127 127 0
-0.735977 -0.349542 -0.244455 0 255 0
-0.030284 -0.431128 -0.275700 76 0 153
0.228493 0.427912 0.239879 204 51 127
0.300223 0.435029 -0.271071 204 51 127
-0.631423 -0.293341 -0.244455 153 0 76
-0.676297 0.306576 -0.078800 127 127 0
-0.466266 0.012276 0.233085 0 0 255
0.162490 0.206098 -0.254870 0 255 0
0.633990 0.141147 -0.254870 0 255 0
-0.554414 0.250926 0.239230 0 0 255
-0.782762 0.083471 -0.254870 0 255 0
-0.414847 0.395124 0.224225 204 51 127
-0.823124 -0.201383 -0.195022 0 127 127
0.815519 -0.422181 0.071782 153 76 0
-0.554623 0.014285 -0.254870 0 255 0
0.269307 -0.389360 0.137433 76 0 153
-0.419033 0.213616 0.203395 255 0 0
0.418012 0.033322 -0.244455 0 255 0
-0.378022 0.027615 0.203395 153 76 0
-0.808235 -0.315765 0.203395 76 0 153
-0.722998 -0.256322 0.233085 0 0 255
-0.388990 -0.266874 0.239875 0 0 255
-0.721897 -0.363463 -0.074654 127 127 0
0.801632 -0.389203 0.091134 127 0 127
0.822462 -0.199480 0.210104 76 0 153
-0.823124 0.375404 0.057621 0 127 127
-0.384251 -0.363463 -0.003547 127 127 0
0.815519 -0.474868 -0.259754 153 76 0
0.809641 0.435029 0.197951 76 0 153
-0.241412 -0.250264 0.225320 0 255 0
-0.312470 -0.363463 0.199158 127 127 0
0.801632 0.004164 -0.147463 127 0 127
-0.360672 -0.363463 -0.173379 127 127 0
0.761707 0.332493 -0.012307 76 0 153
0.402361 0.370802 0.208613 76 153 0
0.371662 -0.026985 -0.254870 0 255 0
-0.837011 -0.416379 -0.145139 153 0 76
0.180830 0.240556 -0.244455 0 255 0
-0.341763 0.396964 -0.275700 204 51 127
0.360176 -0.040990 0.239222 76 153 0
-0.024377 -0.363463 -0.171450 127 127 0
0.362991 -0.363463 -0.001686 127 127 0
-0.803311 -0.366537 -0.244455 0 255 0
0.352749 0.108827 0.224225 76 153 0
-0.053850 0.240694 -0.244455 0 255 0
-0.242912 0.208914 -0.254870 0 255 0
-0.794905 -0.363463 0.127501 127 127 0
-0.756801 -0.483317 0.137433 76 0 153
-0.413152 -0.406510 0.137433 76 0 153
-0.210935 -0.049757 0.225320 0 255 0
-0.756397 -0.120383 -0.254870 0 255 0
0.271629 -0.054379 0.241024 127 0 127
0.383809 -0.470747 0.137433 76 0 153
-0.244788 -0.092569 -0.254870 0 255 0
-0.310595 -0.077471 -0.254870 0 255 0
0.227690 -0.214834 0.225320 127 0 127
0.022651 0.214657 -0.254870 0 255 0
0.288919 0.266404 0.240452 204 51 127
0.115258 -0.026128 0.233085 127 0 127
0.135235 -0.363463 0.178970 127 127 0
0.032119 0.292695 0.225320 204 51 127
-0.767717 -0.046206 -0.254870 0 255 0
0.695693 -0.156686 0.233085 76 153 0
0.393870 0.370802 -0.106796 153 0 76
0.639433 0.306576 -0.089989 76 0 153
-0.628089 0.147145 0.225320 0 0 255
-0.571994 -0.341923 0.242579 0 0 255
-0.137282 -0.075833 0.233085 0 255 0
0.036276 0.027086 -0.244455 0 255 0
-0.436281 0.200735 0.239224 0 0 255
-0.284374 0.404481 0.203395 0 255 0
-0.812582 0.400312 -0.237166 0 255 0
0.761707 0.324106 0.169308 76 0 153
-0.386765 -0.398180 0.203544 127 127 0
0.280877 -0.121899 0.204625 76 153 0
-0.761680 0.378649 -0.244455 0 255 0
-0.780728 -0.398180 0.204498 127 127 0
0.801632 0.138078 0.026388 127 0 127
0.499461 0.008987 0.225320 76 153 0
-0.490937 0.142260 0.225320 0 0 255
0.420748 0.126469 0.225320 76 153 0
0.748618 0.370802 0.044192 76 0 153
-0.173757 0.109909 -0.254870 0 255 0
-0.705948 -0.217764 -0.254870 0 255 0
0.417317 0.183406 -0.254870 0 255 0
0.310225 -0.363463 0.144738 127 127 0
-0.508776 -0.363463 -0.064511 127 127 0
0.571476 0.348869 -0.244455 0 255 0
-0.010383 0.351708 -0.271498 204 51 127
-0.094198 0.107231 -0.244455 0 255 0
-0.762370 0.327447 -0.045702 0 0 255
0.758854 0.370802 -0.155663 76 0 153
0.686442 -0.398654 -0.275700 76 0 153
0.316188 -0.002552 0.203395 76 153 0
-0.380247 0.327925 0.241246 204 51 127
-0.646386 0.341544 0.203395 204 51 127
0.511997 -0.439532 0.137433 76 0 153
-0.835722 0.389306 -0.275700 0 127 127
0.801632 -0.382025 -0.194524 127 0 127
0.808217 -0.395947 0.224225 76 153 0
-0.551210 0.325610 -0.164605 0 255 0
-0.071715 -0.363463 0.161222 127 127 0
-0.412681 0.235041 -0.254870 0 255 0
-0.110045 0.354814 -0.244455 0 255 0
-0.067924 -0.398180 0.207874 127 127 0
-0.378037 -0.475071 -0.275700 76 0 153
0.815519 -0.086086 -0.236365 127 0 127
-0.174815 -0.226121 0.225320 0 255 0
0.441678 -0.363463 0.083025 127 127 0
-0.783200 0.325480 -0.122442 0 0 255
0.013920 0.065182 -0.244455 0 255 0
-0.534359 -0.515283 0.137433 76 0 153
0.044579 -0.363463 -0.154330 127 127 0
-0.619773 0.321834 -0.254870 0 255 0
-0.505673 0.213720 0.203395 255 0 0
0.284823 -0.363463 -0.015547 127 127 0
-0.401183 0.365852 -0.244455 0 255 0
0.808273 -0.002587 -0.275700 127 0 127
-0.802294 0.004124 0.209403 76 0 153
0.130929 -0.469514 0.137433 76 0 153
-0.823124 0.178996 -0.265156 0 127 127
0.773555 0.414199 -0.157313 153 0 76
-0.171268 -0.340654 0.242996 0 255 0
0.740877 0.327682 -0.095462 76 0 153
0.208287 0.254500 0.203721 255 0 0
-0.389254 -0.363463 0.102082 127 127 0
0.791027 -0.363463 -0.025883 127 127 0
0.108971 -0.363463 0.071237 127 127 0
0.210237 0.101901 -0.254870 0 255 0
0.535720 -0.363463 0.048016 127 127 0
0.292496 0.154211 0.203395 76 153 0
0.463562 -0.310048 0.225320 76 153 0
-0.349729 0.291399 -0.254870 0 255 0
0.652977 -0.217279 0.225320 76 153 0
0.605735 0.393844 0.224225 76 153 0
0.684321 0.216783 0.239233 76 153 0
0.706876 -0.363463 -0.047382 127 127 0
0.360057 0.428878 0.239692 76 153 0
0.788541 -0.265830 0.224225 76 153 0
0.015852 0.289511 -0.244455 0 255 0
0.805844 -0.000274 0.239233 76 153 0
0.142783 0.401328 -0.275700 204 51 127
-0.655005 -0.250242 0.233085 0 0 255
0.629224 0.245595 -0.254870 0 255 0
0.731529 0.335993 0.233085 76 153 0
-0.426525 -0.363463 0.181766 127 127 0
-0.823124 -0.171925 0.155150 0 127 127
0.619812 -0.393955 0.137433 76 0 153
0.576965 -0.370842 -0.275700 76 0 153
-0.693392 0.193770 -0.254870 0 255 0
-0.041620 0.170971 -0.254870 0 255 0
0.403217 0.287481 -0.031626 76 0 153
0.610826 0.301368 -0.017388 76 0 153
0.295468 -0.018315 -0.254870 0 255 0
-0.534207 0.002504 0.233085 0 0 255
-0.087937 0.214327 0.203395 255 0 0
-0.728022 -0.400830 -0.275700 76 0 153
0.505934 -0.363463 0.160716 127 127 0
0.256188 0.254500 0.216791 204 51 127
-0.463842 0.427364 0.239881 204 51 127
0.599857 -0.445414 0.137433 76 0 153
0.376507 0.265185 0.240206 76 153 0
0.045006 -0.473469 0.137433 76 0 153
-0.762370 0.369743 -0.059874 0 0 255
0.532137 0.389685 0.244304 76 153 0
0.295290 0.186836 0.239227 127 0 127
0.815519 -0.446022 -0.183323 153 76 0
-0.040527 -0.270571 0.239223 0 255 0
0.815519 0.432941 0.118676 127 0 127
-0.579118 -0.375676 -0.254870 0 255 0
-0.486113 -0.363463 0.069067 127 127 0
-0.837011 0.195651 -0.036793 0 127 127
0.422402 -0.298926 0.233085 76 153 0
0.356486 0.129124 -0.254870 0 255 0
0.719721 0.351708 -0.255454 0 255 0
-0.435494 0.303487 0.225320 204 51 127
0.091731 0.376077 -0.275700 204 51 127
-0.564362 0.209103 0.274115 255 0 0
-0.837011 0.386422 -0.035627 0 127 127
-0.636523 -0.363463 -0.010757 127 127 0
0.528293 -0.116184 0.225320 76 153 0
-0.837011 0.396867 -0.138264 0 127 127
0.815519 -0.516072 -0.236425 153 76 0
0.436004 0.301368 -0.059255 76 0 153
0.130455 -0.074115 -0.254870 0 255 0
-0.838149 0.075957 0.239467 0 0 255
-0.806996 -0.051337 -0.254870 0 255 0
0.605265 -0.395101 0.203395 127 127 0
0.740848 0.199856 0.239224 76 153 0
0.551774 -0.498424 -0.275700 76 0 153
-0.837011 0.150525 -0.189160 0 127 127
0.076455 -0.279757 0.233085 127 0 127
-0.837011 -0.265751 -0.207274 0 127 127
-0.113456 -0.248357 0.225320 0 255 0
-0.033714 -0.345400 0.224225 0 255 0
0.235621 -0.363463 -0.018862 127 127 0
0.195039 -0.194416 0.225320 127 0 127
0.508006 -0.363463 -0.057995 127 127 0
0.327745 -0.196550 0.234005 76 153 0
0.638423 -0.222045 -0.254870 0 255 0
-0.802294 -0.096832 0.216742 0 0 255
-0.520446 0.072762 0.225320 0 0 255
-0.120647 0.220804 -0.244455 0 255 0
-0.301674 0.355638 0.243121 204 51 127
0.746983 -0.398180 0.208951 127 127 0
-0.414914 -0.321833 -0.244455 0 255 0
0.006331 -0.496292 0.137433 76 0 153
0.006307 0.358328 0.233085 204 51 127
0.801632 0.195233 0.146235 127 0 127
-0.282549 0.376780 -0.275700 204 51 127
0.529164 0.287481 0.220565 76 153 0
0.780468 -0.119784 0.239492 76 0 153
0.601556 0.087054 0.233085 76 153 0
-0.706232 -0.519072 0.137433 76 0 153
-0.533752 0.185675 -0.254870 0 255 0
-0.785820 0.058143 0.243219 0 0 255
-0.180794 -0.301827 -0.244455 0 255 0
0.495907 -0.100606 -0.244455 0 255 0
-0.837011 0.241693 -0.212728 0 127 127
-0.633205 0.222097 0.238389 0 0 255
0.801632 -0.059681 -0.165992 127 0 127
0.803291 0.159647 -0.275700 127 0 127
0.153613 0.282884 -0.254870 0 255 0
-0.508956 -0.199314 -0.244455 0 255 0
-0.783200 0.294544 -0.074722 0 0 255
0.718402 0.314157 -0.164605 153 76 0
0.718311 0.411025 -0.096723 153 0 76
0.626610 0.429821 0.233060 76 153 0
-0.837011 -0.476316 -0.192370 153 0 76
-0.039037 0.315551 0.233085 204 51 127
0.649878 0.324355 -0.254870 0 255 0
-0.137233 -0.479978 -0.275700 76 0 153
-0.803881 -0.417078 0.137433 76 0 153
-0.793297 -0.363463 -0.173133 127 127 0
-0.657678 -0.262805 -0.254870 0 255 0
-0.457248 0.199367 -0.254870 0 255 0
0.425568 0.008404 0.225320 76 153 0
-0.447279 0.306576 0.151428 127 127 0
-0.374160 -0.138375 0.239226 0 0 255
-0.823124 -0.126509 -0.175316 0 127 127
-0.794332 0.329914 0.244606 204 51 127
0.448682 -0.230522 0.225320 76 153 0
0.554512 -0.363463 -0.003683 127 127 0
-0.590195 -0.173128 -0.244455 0 255 0
-0.457464 -0.171225 0.225320 0 0 255
0.438580 0.306576 0.155933 76 0 153
-0.814975 -0.351182 0.239226 0 0 255
0.245458 0.389388 -0.275700 204 51 127
0.154735 -0.106463 -0.244455 0 255 0
0.355251 0.000910 0.239224 76 153 0
-0.523381 0.301368 -0.097835 127 127 0
0.801632 -0.395419 -0.236904 127 0 127
0.584772 0.253384 0.203395 255 0 0
0.768737 -0.056638 0.241769 76 153 0
-0.711783 -0.013597 -0.254870 0 255 0
-0.728125 -0.089594 0.225320 0 0 255
0.560161 0.212840 0.203539 255 0 0
-0.837011 0.152250 0.052408 0 127 127
-0.385981 -0.363463 -0.067575 127 127 0
-0.231110 -0.362747 -0.275700 76 0 153
0.544839 -0.156624 -0.244455 0 255 0
0.649100 0.306576 0.102057 76 0 153
0.538953 -0.363463 -0.141898 127 127 0
0.308917 -0.031805 0.237591 127 0 127
-0.802717 0.087183 0.203395 76 0 153
-0.137081 -0.185067 -0.244455 0 255 0
0.710458 -0.363463 -0.225804 127 127 0
0.539567 -0.518998 0.137433 76 0 153
0.815519 -0.436551 -0.240143 153 76 0
0.815519 -0.286374 0.146480 127 0 127
-0.576548 0.060229 -0.254870 0 255 0
0.761707 0.312929 -0.130919 76 0 153
-0.478194 0.334924 -0.254870 0 255 0
-0.837011 0.071798 0.016770 0 127 127
-0.544098 0.367936 -0.244455 0 255 0
-0.429109 -0.363463 -0.211553 127 127 0
-0.290101 -0.363463 0.026530 127 127 0
-0.463639 -0.122885 0.225320 0 0 255
-0.310688 -0.040628 0.239224 0 255 0
-0.837011 0.260076 0.091972 0 127 127
-0.700654 0.402317 -0.254870 0 255 0
-0.739803 0.408438 -0.235124 0 0 255
0.655564 0.177018 -0.254870 0 255 0
0.791263 -0.055121 -0.244455 0 255 0
-0.782968 -0.363463 -0.110276 127 127 0
0.467848 0.401590 -0.275700 204 51 127
-0.485494 -0.363463 -0.138265 127 127 0
0.724581 -0.269831 0.233085 76 153 0
-0.133685 0.029364 0.225320 0 255 0
0.457033 -0.362930 0.239223 76 153 0
0.761707 0.287722 -0.033608 76 0 153
-0.070244 -0.318717 0.244834 0 255 0
0.566658 0.301368 -0.002952 76 0 153
-0.837011 -0.520803 0.069517 153 0 76
-0.823124 0.070515 0.156640 0 127 127
0.078328 0.315500 -0.244455 0 255 0
-0.658201 0.350850 -0.164605 0 255 0
0.370409 0.434817 0.203395 0 255 0
0.667905 -0.130917 -0.254870 0 255 0
-0.147341 -0.363463 0.045118 127 127 0
0.787140 -0.425445 0.137433 76 0 153
-0.823124 0.104238 0.111027 0 127 127
0.186936 0.249023 0.239233 204 51 127
-0.212284 0.021653 -0.244455 0 255 0
0.801632 -0.026039 0.134728 127 0 127
-0.823124 -0.393261 0.002341 0 127 127
-0.753561 -0.363463 0.136869 127 127 0
0.358413 -0.363463 -0.040922 127 127 0
0.801632 0.256878 0.150742 127 0 127
-0.436214 0.435029 -0.272776 204 51 127
-0.837011 -0.191599 0.096186 0 127 127
-0.593165 -0.447528 -0.275700 76 0 153
-0.753171 0.151332 -0.244455 0 255 0
0.776589 0.324920 -0.254870 0 255 0
0.250948 -0.363463 -0.165684 127 127 0
-0.699358 -0.334873 -0.254870 0 255 0
-0.186959 0.369663 0.233085 204 51 127
0.012268 -0.312248 0.224225 127 0 127
-0.835239 -0.479975 0.137433 153 0 76
-0.291806 -0.306726 -0.254870 0 255 0
0.465519 0.370802 -0.151090 153 76 0
-0.182471 -0.363463 -0.148538 127 127 0
-0.823124 -0.083007 -0.233255 0 127 127
0.815519 -0.347355 0.134707 127 0 127
-0.134258 -0.363463 -0.154333 127 127 0
0.100070 0.141544 -0.244455 0 255 0
-0.404784 0.337559 0.195470 255 0 0
-0.302944 0.008889 0.203395 0 255 0
-0.659864 0.306576 -0.124130 127 127 0
-0.281299 -0.245391 -0.254870 0 255 0
0.404122 0.293353 0.037601 153 0 76
-0.262901 -0.363463 -0.094608 127 127 0
0.482353 -0.449498 -0.275700 76 0 153
-0.823124 -0.387843 0.080061 0 127 127
0.269516 -0.480487 0.137433 76 0 153
-0.332461 -0.371302 0.238417 0 255 0
-0.231389 0.134694 -0.254870 0 255 0
-0.739577 0.418227 0.239231 204 51 127
0.567723 -0.446683 -0.275700 76 0 153
0.139805 0.135411 -0.254870 0 255 0
-0.498474 -0.364327 0.239224 0 0 255
0.312290 0.221353 0.239794 127 0 127
-0.823124 0.221793 0.027127 0 127 127
-0.739931 0.400312 -0.005325 0 0 255
0.648678 0.287481 -0.156263 153 76 0
-0.837011 0.046234 -0.144768 0 127 127
-0.378845 -0.444506 0.137433 76 0 153
0.179995 -0.363463 -0.191865 127 127 0
0.312170 -0.363463 -0.131794 127 127 0
-0.837011 -0.343382 -0.155188 0 127 127
0.690063 -0.281596 -0.244455 0 255 0
0.419804 0.204454 0.239226 153 0 76
0.076227 0.102660 0.233085 127 0 127
-0.683530 0.287481 -0.148750 0 255 0
0.727020 -0.343173 -0.254870 0 255 0
-0.622656 0.287481 -0.155892 0 255 0
0.659707 -0.363463 -0.224364 0 255 0
0.703900 0.237826 0.203395 255 0 0
0.761707 0.369512 0.129148 76 0 153
-0.565312 0.370802 -0.162143 0 255 0
0.351052 0.385986 -0.275700 204 51 127
-0.118049 -0.132373 -0.254870 0 255 0
-0.483099 -0.061080 0.233085 0 0 255
0.815519 -0.312513 -0.165283 127 0 127
0.779228 -0.209922 0.239633 76 153 0
-0.608371 -0.363463 0.087362 127 127 0
-0.406351 -0.167375 0.244886 0 0 255
-0.344891 -0.088746 -0.244455 0 255 0
0.518866 0.393337 -0.244455 0 255 0
-0.311143 -0.398180 0.216635 127 127 0
0.161174 0.318170 0.233085 204 51 127
-0.170827 -0.109748 0.233085 0 255 0
-0.501566 0.290185 0.224225 204 51 127
-0.045216 0.103510 -0.254870 0 255 0
-0.322797 0.001063 0.239230 153 76 0
-0.240633 -0.184338 0.233085 0 255 0
0.815519 -0.222096 0.084749 127 0 127
0.801632 0.378572 -0.273072 127 0 127
0.780216 -0.016291 -0.254870 0 255 0
-0.393832 0.435029 -0.261602 204 51 127
0.761707 0.360560 -0.119838 76 0 153
0.790751 0.400312 -0.026555 153 0 76
-0.837011 0.200915 0.085227 0 127 127
0.812059 0.184015 0.239733 76 153 0
0.387314 -0.220724 0.244798 76 153 0
-0.533453 -0.169911 0.225320 0 0 255
0.038019 -0.387503 0.239594 127 0 127
0.414194 -0.342137 -0.254870 0 255 0
0.409358 -0.363463 0.129067 127 127 0
0.815519 0.139599 0.082132 127 0 127
-0.324840 -0.478856 0.137433 76 0 153
-0.046737 -0.363463 -0.048414 127 127 0
-0.582792 0.326568 -0.244455 0 255 0
-0.210891 -0.369306 -0.244455 0 255 0
0.009200 0.123171 0.224225 127 0 127
0.427181 -0.103238 -0.254870 0 255 0
-0.010678 -0.132051 -0.254870 0 255 0
-0.531526 -0.250066 0.233085 0 0 255
0.435280 -0.221020 -0.244455 0 255 0
0.014452 0.133638 -0.244455 0 255 0
-0.573607 0.289737 0.225320 0 0 255
-0.687491 -0.363463 -0.192104 127 127 0
-0.422611 0.254208 0.203395 255 0 0
0.815519 0.305781 -0.185189 127 0 127
0.801632 0.258549 -0.155593 127 0 127
-0.823124 0.026399 -0.052058 0 127 127
0.718311 0.403376 -0.148630 153 0 76
0.815519 0.180771 0.022074 127 0 127
-0.349746 0.435029 0.205105 0 255 0
-0.059988 0.361503 0.233085 204 51 127
0.269514 -0.164786 -0.244455 0 255 0
-0.555018 -0.363463 -0.193739 127 127 0
-0.113488 -0.389402 0.137433 76 0 153
-0.837011 0.224527 0.201828 76 0 153
-0.759589 0.294755 -0.254870 0 255 0
-0.346482 -0.148293 -0.244455 0 255 0
0.158632 -0.102256 0.233085 127 0 127
-0.087672 0.283196 0.224225 204 51 127
-0.217151 -0.363463 -0.169620 127 127 0
0.731585 -0.002739 -0.254870 0 255 0
0.478931 0.082565 -0.244455 0 255 0
-0.133979 0.008683 -0.254870 0 255 0
0.343489 -0.349048 0.224225 76 153 0
-0.254088 0.166338 0.240068 0 255 0
0.548703 0.116733 -0.244455 0 255 0
-0.740488 -0.088355 -0.244455 0 255 0
0.451073 0.282884 0.224225 76 153 0
-0.685288 -0.308042 0.225320 0 0 255
-0.222083 0.169885 -0.244455 0 255 0
0.343753 0.341585 0.239224 76 153 0
0.492145 0.228641 -0.244455 0 255 0
-0.365914 -0.429001 -0.275700 76 0 153
-0.246349 0.383228 0.238066 204 51 127
-0.592091 -0.363463 -0.095274 127 127 0
0.453060 -0.015102 0.233085 76 153 0
-0.735604 -0.157203 -0.244455 0 255 0
-0.843955 -0.280069 0.216270 76 0 153
0.023702 0.154521 0.239303 127 0 127
0.256333 0.351708 -0.272026 204 51 127
-0.404784 0.333874 -0.121442 255 0 0
0.721046 0.306576 0.096980 76 0 153
-0.823124 -0.367693 0.154393 0 127 127
-0.515528 0.408850 0.275708 153 0 76
0.488099 0.249916 0.203395 255 0 0
-0.325727 -0.363463 -0.015595 127 127 0
-0.045258 -0.363463 -0.244047 0 255 0
-0.384520 -0.314455 0.239371 0 0 255
-0.062617 -0.363463 0.091344 127 127 0
0.801632 -0.019497 -0.028970 127 0 127
-0.165654 0.007031 0.233085 0 255 0
0.169123 -0.362956 -0.275700 76 0 153
0.041045 -0.363463 0.093168 127 127 0
-0.333215 -0.363463 0.064734 127 127 0
0.591163 -0.173477 0.225320 76 153 0
-0.465005 -0.363463 0.125153 127 127 0
0.440513 0.306576 -0.132123 76 0 153
-0.308272 0.169777 0.239223 153 76 0
-0.245005 -0.004693 0.233085 0 255 0
-0.712653 -0.179628 0.233085 0 0 255
-0.802506 -0.462444 -0.275700 76 0 153
-0.609389 -0.344993 -0.254870 0 255 0
-0.443607 -0.355182 0.239599 0 0 255
0.796098 0.400312 0.133436 153 0 76
-0.769566 0.287481 0.131300 0 0 255
0.594469 0.288904 0.224225 76 153 0
0.371280 0.230940 0.203395 255 0 0
-0.758230 -0.363463 0.198340 127 127 0
0.786076 -0.368548 0.203395 76 0 153
0.815519 -0.147494 0.004145 127 0 127
-0.837011 -0.398918 -0.081112 153 0 76
-0.837011 0.113911 -0.165408 0 127 127
0.284063 0.290256 -0.254870 0 255 0
-0.616569 -0.095090 -0.254870 0 255 0
-0.094906 0.179587 -0.244455 0 255 0
0.815519 -0.371685 -0.261400 127 0 127
-0.111112 -0.062565 -0.244455 0 255 0
-0.333913 -0.146202 0.239815 0 255 0
0.226900 -0.065823 0.233085 127 0 127
-0.801198 0.425864 -0.275700 204 51 127
-0.734668 -0.406312 0.137433 76 0 153
-0.805632 -0.316774 -0.244455 0 255 0
0.373555 -0.314496 0.241053 76 153 0
-0.783200 0.363321 0.076092 0 0 255
0.084967 -0.187438 -0.254870 0 255 0
-0.247043 0.308868 0.233085 204 51 127
-0.837011 0.003670 0.139951 0 127 127
0.780802 0.052443 0.206445 76 0 153
-0.307683 -0.109818 0.203395 0 255 0
-0.837011 -0.493913 -0.228029 153 0 76
0.617031 -0.363463 0.031372 127 127 0
-0.680947 0.301368 0.057282 127 127 0
-0.837011 0.139171 -0.081023 0 127 127
-0.088313 -0.483060 -0.275700 76 0 153
0.803799 0.305270 -0.275700 127 0 127
-0.416541 0.370802 -0.155217 255 0 0
0.267532 0.387942 -0.244455 0 255 0
0.815519 -0.411941 0.027304 153 76 0
0.086097 -0.034948 -0.244455 0 255 0
0.599121 0.102477 -0.244455 0 255 0
0.031563 0.404355 -0.275700 204 51 127
-0.179630 -0.349037 -0.244455 0 255 0
0.404122 0.335678 0.007658 153 0 76
0.683890 -0.363463 -0.153936 127 127 0
0.801632 0.136274 -0.171715 127 0 127
-0.643254 0.040871 -0.244455 0 255 0
-0.837011 0.055322 -0.180443 0 127 127
-0.800112 0.400312 -0.198598 0 0 255
-0.070312 0.414021 0.239224 204 51 127
-0.149237 -0.059431 -0.244455 0 255 0
0.815519 -0.186765 -0.148939 127 0 127
-0.457882 0.354184 0.203395 204 51 127
-0.311408 -0.490007 -0.275700 76 0 153
0.543738 0.301368 -0.116830 76 0 153
-0.585153 0.427026 0.239881 204 51 127
0.288260 0.234733 -0.244455 0 255 0
-0.278417 -0.207630 -0.254870 0 255 0
0.410710 -0.365635 0.224225 127 127 0
-0.198714 -0.356519 0.207107 127 127 0
-0.707107 0.048220 -0.254870 0 255 0
-0.732560 0.333887 0.203395 204 51 127
0.374402 0.201047 0.276767 153 0 76
-0.823124 0.182647 -0.143371 0 127 127
-0.330409 0.051583 0.237482 0 255 0
-0.670114 -0.363463 0.077656 127 127 0
-0.716180 -0.036529 0.233085 0 0 255
0.305877 -0.363463 0.185019 127 127 0
0.801632 -0.220023 -0.038478 127 0 127
-0.168505 -0.398180 0.208251 127 127 0
-0.425614 0.369240 0.037279 255 0 0
-0.823124 0.260156 -0.037250 0 127 127
-0.110757 -0.363463 0.090820 127 127 0
0.026364 -0.390586 0.137433 76 0 153
-0.312460 0.276839 0.240217 204 51 127
0.801632 0.195984 -0.158334 127 0 127
0.761707 0.365419 0.006312 76 0 153
0.036728 -0.395609 -0.275700 76 0 153
0.492860 0.307153 -0.254870 0 255 0
0.673162 0.362569 0.224225 76 153 0
0.599139 0.337661 0.225320 76 153 0
0.308020 -0.363463 0.013340 127 127 0
-0.345781 -0.234836 -0.244455 0 255 0
0.277026 -0.330126 -0.254870 0 255 0
-0.069800 0.247930 0.224225 204 51 127
-0.495616 0.306576 -0.129834 127 127 0
-0.224138 -0.217501 0.225320 0 255 0
-0.596432 0.380004 -0.275700 204 51 127
-0.151542 0.214291 0.239231 0 255 0
0.016584 -0.491691 -0.275700 76 0 153
-0.615566 0.254500 0.214102 255 0 0
-0.179377 0.145403 0.225320 0 255 0
0.817911 -0.298433 0.203395 127 0 127
-0.763356 0.259888 0.224225 255 0 0
-0.837011 0.217881 -0.146064 0 127 127
0.681114 -0.363463 0.082201 127 127 0
0.754296 -0.289492 -0.254870 0 255 0
0.815519 0.049629 -0.239526 127 0 127
0.745160 -0.507947 0.137433 76 0 153
-0.795646 0.287777 -0.254870 0 255 0
-0.494259 -0.487661 -0.275700 76 0 153
-0.823124 0.364381 -0.206011 0 127 127
0.785542 0.400312 -0.188613 153 0 76
0.815519 -0.363836 -0.140677 127 0 127
-0.501076 0.370802 -0.162299 0 255 0
0.134478 -0.363463 -0.101039 127 127 0
0.167247 -0.491571 -0.275700 76 0 153
0.243415 -0.271117 -0.244455 0 255 0
0.736575 -0.363463 0.041196 127 127 0
0.221404 -0.233448 -0.244455 0 255 0
-0.734725 0.260551 -0.244455 0 255 0
0.757772 -0.363463 -0.137232 127 127 0
0.304320 -0.366476 0.239232 127 0 127
-0.625094 -0.361092 0.203395 127 127 0
0.133850 0.384842 0.244319 204 51 127
0.502979 -0.481958 -0.275700 76 0 153
-0.583426 -0.379007 0.137433 76 0 153
0.091344 -0.361049 0.224225 127 0 127
-0.514943 0.154880 -0.254870 0 255 0
0.370103 0.366328 0.245010 76 153 0
0.265872 -0.178279 0.224225 127 0 127
-0.359946 0.397386 -0.244455 0 255 0
0.815519 0.042998 -0.029708 127 0 127
0.595761 -0.363463 -0.034496 127 127 0
-0.368934 0.052159 0.239229 0 0 255
0.369053 0.073116 -0.244455 0 255 0
-0.341958 0.191974 0.203395 153 76 0
-0.797641 0.361852 -0.244455 0 255 0
-0.325625 0.382944 0.239228 204 51 127
0.739554 0.284170 0.244011 76 153 0
-0.610880 -0.363463 0.023879 127 127 0
-0.342727 -0.004747 0.203395 153 76 0
0.801632 -0.254003 -0.059181 127 0 127
-0.823124 -0.060956 -0.190389 0 127 127
0.573172 0.400961 -0.275700 204 51 127
-0.009426 -0.168146 -0.244455 0 255 0
-0.425614 0.360457 -0.082929 255 0 0
0.638325 0.354665 0.233085 76 153 0
-0.414000 0.134369 0.233085 0 0 255
0.066813 -0.112063 -0.244455 0 255 0
0.815519 -0.482507 -0.007762 153 76 0
-0.313123 -0.330663 0.239225 0 255 0
0.730192 0.071881 -0.244455 0 255 0
-0.137156 0.289474 -0.254870 0 255 0
-0.468611 -0.392304 0.203395 127 127 0
-0.593252 0.144127 -0.254870 0 255 0
0.146878 0.010736 0.225320 127 0 127
0.300572 -0.363463 -0.051478 127 127 0
-0.823124 -0.023620 -0.200981 0 127 127
0.564384 0.212574 0.239231 76 153 0
-0.837011 0.392571 -0.102584 0 127 127
0.364198 -0.123176 0.205503 76 153 0
0.136719 -0.157680 0.225320 127 0 127
-0.837011 -0.440631 -0.263303 153 0 76
0.500670 -0.027892 -0.254870 0 255 0
-0.276812 0.429821 0.237123 0 255 0
0.542720 -0.372121 0.239228 76 153 0
0.667626 0.306576 -0.127142 76 0 153
0.801632 0.324221 -0.011134 127 0 127
-0.425614 0.307384 0.034996 127 127 0
0.166599 0.425329 0.203395 0 255 0
-0.528088 0.397006 0.203395 0 255 0
-0.567014 -0.121323 -0.244455 0 255 0
-0.560177 0.157764 0.225320 0 0 255
0.105868 0.166338 0.237405 127 0 127
-0.302369 0.126300 0.209029 153 76 0
-0.431357 -0.471619 -0.275700 76 0 153
-0.837011 0.089394 0.065865 0 127 127
-0.831031 0.245364 0.237294 0 0 255
-0.254892 0.017787 -0.244455 0 255 0
-0.376802 -0.022673 0.239224 0 0 255
-0.546713 0.328748 0.203395 204 51 127
0.714851 -0.522349 -0.275700 76 0 153
-0.532352 0.301368 0.003727 127 127 0
-0.787160 -0.373365 -0.275700 76 0 153
0.130118 -0.390399 0.239881 127 0 127
-0.602805 -0.002649 -0.254870 0 255 0
-0.774468 -0.024998 0.225320 0 0 255
0.410274 0.409421 -0.254870 204 51 127
-0.532748 -0.363463 0.087342 127 127 0
0.654602 0.306576 -0.041959 76 0 153
-0.823124 0.402532 0.120856 0 127 127
0.801632 0.253060 -0.000869 127 0 127
0.323836 -0.426521 -0.275700 76 0 153
-0.425614 0.334714 0.073395 255 0 0
-0.372461 -0.388287 0.239850 0 0 255
-0.650189 0.119012 0.225320 0 0 255
-0.258717 -0.502419 -0.275700 76 0 153
0.572140 -0.483703 0.137433 76 0 153
0.296921 -0.480629 -0.275700 76 0 153
-0.338822 0.249238 0.237226 0 0 255
0.301758 -0.265554 0.239231 127 0 127
0.168801 -0.363463 0.043298 127 127 0
-0.156317 0.218554 -0.244455 0 255 0
0.660582 0.357048 -0.275700 204 51 127
0.040410 -0.363463 -0.211356 127 127 0
-0.146580 -0.360356 -0.275700 76 0 153
0.737083 0.414199 0.188401 153 0 76
0.183519 0.028718 -0.244455 0 255 0
-0.837011 0.431959 -0.048361 0 127 127
0.156270 -0.363463 -0.227622 127 127 0
-0.161135 0.365134 -0.244455 0 255 0
0.432650 -0.448091 -0.275700 76 0 153
0.775081 0.214094 0.203395 76 0 153
-0.455235 0.254500 0.217872 255 0 0
-0.000808 -0.363463 0.150677 127 127 0
-0.266768 -0.369061 -0.275700 76 0 153
0.815519 -0.003108 0.186606 127 0 127
0.482847 0.306576 -0.081413 76 0 153
0.036639 0.093789 -0.254870 0 255 0
0.172433 -0.276891 -0.244455 0 255 0
0.338570 0.395312 0.203395 0 255 0
-0.162072 -0.112665 -0.244455 0 255 0
0.494838 0.207123 0.239228 76 153 0
0.131375 -0.310305 0.225320 127 0 127
0.147412 -0.363463 0.000113 127 127 0
-0.517744 0.022358 -0.244455 0 255 0
0.610986 -0.196830 -0.254870 0 255 0
0.240347 -0.346243 0.241296 127 0 127
0.783281 0.137193 0.203395 76 0 153
-0.084663 -0.023051 -0.254870 0 255 0
-0.071197 0.040565 -0.254870 0 255 0
-0.823124 0.027872 0.026234 0 127 127
0.613126 0.287481 -0.163564 153 76 0
-0.115817 -0.047498 0.225320 0 255 0
0.801632 0.201570 -0.118622 127 0 127
0.117033 0.415793 0.239227 204 51 127
0.815519 0.400234 0.046550 153 0 76
0.815519 -0.250554 -0.181144 127 0 127
-0.188085 0.319935 -0.244455 0 255 0
-0.378192 0.192219 0.239224 0 0 255
0.396568 -0.363463 -0.224784 127 127 0
-0.837011 -0.132667 0.054925 0 127 127
-0.837011 -0.370282 0.107687 0 127 127
0.564638 -0.363463 0.125914 127 127 0
0.421459 0.306576 0.076421 76 0 153
0.039382 0.172043 -0.254870 0 255 0
0.731002 0.400312 0.019587 153 0 76
-0.710388 -0.356519 0.212705 127 127 0
0.604384 -0.363463 0.071001 127 127 0
0.815519 -0.063091 -0.050601 127 0 127
-0.098938 -0.339609 0.243391 0 255 0
0.500786 -0.166828 -0.254870 0 255 0
0.082746 -0.138007 0.225320 127 0 127
0.383292 0.314734 -0.090757 153 0 76
0.801632 -0.018102 -0.211312 127 0 127
0.801632 0.250458 0.106144 127 0 127
0.773483 0.102886 0.240596 76 153 0
0.801632 0.202285 0.105025 127 0 127
-0.409976 -0.113140 -0.254870 0 255 0
-0.162593 -0.184268 0.225320 0 255 0
-0.263479 -0.030874 -0.244455 0 255 0
0.700787 -0.478262 0.137433 76 0 153
0.456928 -0.363463 -0.112435 127 127 0
0.445565 0.343729 0.203395 76 153 0
0.425972 0.399337 0.203395 0 255 0
0.687414 0.035900 -0.254870 0 255 0
-0.803109 0.151652 -0.254870 0 255 0
0.438211 0.247778 0.203395 255 0 0
-0.691397 -0.363463 0.153341 127 127 0
0.188187 -0.045453 0.233085 127 0 127
-0.481505 -0.432110 -0.275700 76 0 153
0.147027 -0.356519 0.213136 127 0 127
-0.487806 0.330548 0.203395 204 51 127
0.787199 -0.028963 0.224225 76 153 0
0.375354 0.351708 -0.273366 204 51 127
-0.843955 -0.178397 0.212613 76 0 153
0.280877 -0.304752 0.210047 76 153 0
0.317330 -0.129825 0.235206 76 153 0
0.182918 0.395322 -0.275700 204 51 127
0.021316 -0.014385 -0.244455 0 255 0
0.492568 0.324889 -0.164605 153 76 0
-0.343372 0.299629 0.203395 153 76 0
0.801632 -0.037886 -0.274287 127 0 127
-0.662367 0.145028 -0.254870 0 255 0
0.801632 -0.028064 0.009838 127 0 127
0.537917 0.399215 -0.275700 204 51 127
-0.616026 0.306576 0.089743 127 127 0
-0.039789 0.215204 0.203395 255 0 0
0.745009 0.400312 0.081479 153 0 76
-0.169901 0.422222 0.237294 204 51 127
0.726861 -0.363463 0.160158 127 127 0
0.723883 0.405451 -0.275700 204 51 127
0.411925 -0.380330 -0.275700 76 0 153
-0.689846 -0.091894 0.233085 0 0 255
-0.551311 -0.398180 0.205538 127 127 0
0.054403 -0.361437 -0.275700 76 0 153
-0.837011 -0.093974 -0.029479 0 127 127
0.788020 0.400312 0.077411 153 0 76
0.801632 -0.290676 -0.035173 127 0 127
-0.271301 0.365044 -0.244455 0 255 0
-0.837011 -0.432722 -0.068270 153 0 76
0.326809 -0.275596 -0.244455 0 255 0
-0.823124 -0.322360 0.004052 0 127 127
-0.373879 -0.033251 -0.244455 0 255 0
-0.461168 0.336082 -0.164605 0 255 0
-0.666566 0.287481 0.204546 204 51 127
0.201426 -0.074214 -0.254870 0 255 0
-0.284905 -0.245729 0.224225 0 255 0
-0.548757 0.299556 -0.254870 0 255 0
0.270770 -0.088898 -0.254870 0 255 0
0.670457 0.094348 -0.244455 0 255 0
-0.457413 -0.241140 0.233085 0 0 255
0.098898 0.263418 0.239920 204 51 127
0.390571 0.228463 0.233924 76 153 0
-0.377836 -0.073851 0.239224 0 0 255
0.317528 -0.056229 0.203395 76 153 0
0.679329 -0.040303 -0.244455 0 255 0
0.801632 0.039112 0.020740 127 0 127
-0.451129 -0.309187 -0.254870 0 255 0
0.661396 0.306576 0.063104 76 0 153
-0.562863 0.414073 -0.275700 204 51 127
0.815519 0.327326 -0.234198 127 0 127
0.487478 -0.359991 -0.275056 76 0 153
0.801632 0.307467 0.024193 127 0 127
-0.159175 -0.020179 -0.254870 0 255 0
-0.063212 -0.184764 -0.244455 0 255 0
-0.210844 0.106242 -0.254870 0 255 0
0.745375 0.414199 0.130388 153 0 76
0.510365 0.170358 0.245038 76 153 0
0.572248 0.306576 0.185139 76 0 153
0.596407 0.306576 0.108710 76 0 153
0.293403 -0.454853 0.137433 76 0 153
0.272628 -0.331504 0.240783 127 0 127
-0.779848 0.370802 -0.154109 0 0 255
-0.516216 0.306576 0.145363 127 127 0
0.801632 0.047266 -0.100661 127 0 127
-0.197471 0.270940 0.224225 204 51 127
-0.658315 0.306576 0.001911 127 127 0
-0.802294 -0.219645 0.212216 76 0 153
0.747521 -0.363463 0.102446 127 127 0
-0.322358 -0.073591 0.239230 0 255 0
0.044972 -0.048146 0.244324 127 0 127
0.574739 0.301368 -0.133356 76 0 153
0.425099 -0.363463 -0.045581 127 127 0
-0.076905 0.375418 -0.244455 0 255 0
0.076606 0.028911 0.233085 127 0 127
0.760612 0.414199 -0.037450 153 0 76
-0.837011 -0.482469 -0.114997 153 0 76
-0.629704 -0.147314 -0.244455 0 255 0
0.389363 0.118450 0.242989 76 153 0
0.328640 0.283028 0.203395 76 153 0
-0.754376 -0.269506 0.225320 0 0 255
-0.823124 -0.288950 -0.033776 0 127 127
0.627568 0.199197 0.275527 153 0 76
-0.173515 -0.176859 -0.254870 0 255 0
-0.116797 0.174558 0.243606 0 255 0
-0.334404 -0.200214 0.239881 0 255 0
-0.286799 -0.363463 0.175605 127 127 0
0.152144 -0.363463 0.074348 127 127 0
-0.226699 -0.300591 -0.254870 0 255 0
-0.628140 0.427223 -0.275700 204 51 127
-0.617318 -0.217880 -0.244455 0 255 0
-0.395343 0.158286 -0.244455 0 255 0
0.460551 -0.394116 0.203395 127 127 0
-0.227498 -0.138898 -0.254870 0 255 0
-0.833626 -0.049838 0.239772 0 0 255
-0.692934 0.329118 -0.244455 0 255 0
0.069460 0.027470 -0.254870 0 255 0
0.815519 -0.498138 -0.133141 153 76 0
-0.024406 -0.363463 0.095824 127 127 0
0.692330 0.019148 0.233085 76 153 0
-0.528285 0.358689 0.233085 204 51 127
0.801632 0.188570 -0.219328 127 0 127
0.640651 -0.363463 -0.099744 127 127 0
0.260159 0.060954 -0.254870 0 255 0
-0.744947 0.314780 -0.164605 0 255 0
-0.531385 -0.338103 -0.254870 0 255 0
-0.027735 0.029107 0.224225 0 255 0
-0.837011 0.137958 -0.015129 0 127 127
-0.411311 0.046117 -0.254870 0 255 0
0.611694 0.010757 0.225320 76 153 0
0.801632 0.217568 -0.275676 127 0 127
-0.432730 -0.367277 -0.275700 76 0 153
-0.608317 -0.406461 -0.275700 76 0 153
0.787034 -0.103673 0.203395 76 0 153
-0.445341 -0.377136 -0.244455 0 255 0
0.377098 -0.364514 0.203395 127 127 0
0.281145 0.067219 0.224225 76 153 0
-0.837011 0.034242 -0.248923 0 127 127
0.801632 0.338572 0.074537 127 0 127
-0.217954 0.228444 0.238363 0 255 0
0.822462 -0.265048 0.217177 76 0 153
-0.216422 0.360427 -0.275700 204 51 127
0.761219 0.321034 -0.164605 153 76 0
0.815519 -0.421240 -0.118190 153 76 0
-0.484382 0.306576 0.172912 127 127 0
0.144774 0.091879 -0.244455 0 255 0
-0.556845 -0.315994 0.225320 0 0 255
-0.783200 0.319936 0.183893 0 0 255
-0.539527 0.041110 0.225320 0 0 255
-0.092631 0.398427 -0.275700 204 51 127
-0.535697 -0.444997 0.137433 76 0 153
0.051378 -0.315761 0.237323 127 0 127
-0.679517 0.301368 0.162469 127 127 0
0.045482 0.435029 0.208329 0 255 0
-0.823124 -0.046094 -0.137512 0 127 127
0.815519 -0.162777 -0.120287 127 0 127
-0.823124 -0.047997 0.119460 0 127 127
-0.030660 -0.062203 -0.244455 0 255 0
-0.799542 -0.255080 -0.244455 0 255 0
0.089868 -0.248663 0.225320 127 0 127
-0.353901 0.330903 -0.244455 0 255 0
0.224832 0.435029 -0.274297 204 51 127
0.099112 -0.363463 0.037388 127 127 0
0.801632 -0.332526 0.061030 127 0 127
0.275646 0.320887 0.244923 204 51 127
-0.467315 0.228463 0.237081 0 0 255
-0.388762 0.357182 -0.275700 204 51 127
-0.202847 -0.363463 -0.109599 127 127 0
0.780679 -0.485282 -0.275700 76 0 153
-0.765747 -0.400932 -0.275700 76 0 153
0.801632 0.357323 -0.029377 127 0 127
-0.246990 0.250412 0.203395 255 0 0
-0.541755 -0.397854 -0.275700 76 0 153
-0.584479 -0.373888 0.239229 127 127 0
0.312700 -0.327291 0.203395 76 153 0
-0.823124 -0.064192 0.172704 0 127 127
0.761707 0.308027 -0.068535 76 0 153
-0.520654 0.125391 0.233085 0 0 255
-0.404784 0.303356 0.199507 255 0 0
-0.745402 0.180445 0.224225 0 0 255
-0.601702 0.096854 -0.254870 0 255 0
-0.454311 -0.363463 -0.123678 127 127 0
0.468276 0.336904 0.233085 76 153 0
-0.568972 0.254500 0.208250 255 0 0
0.801632 -0.080659 0.095707 127 0 127
0.045952 -0.110229 0.244717 127 0 127
0.293993 0.379942 0.239751 204 51 127
-0.837011 0.175925 0.168020 0 127 127
0.822462 -0.061052 0.205409 76 0 153
0.342270 -0.306667 -0.244455 0 255 0
0.786583 -0.181490 0.203395 76 0 153
-0.273553 -0.363463 0.106150 127 127 0
-0.823124 0.023222 -0.123392 0 127 127
0.216605 -0.341486 -0.254870 0 255 0
-0.401779 0.088001 0.224225 0 0 255
0.815519 -0.198645 0.021398 127 0 127
-0.823311 0.110941 -0.275700 0 127 127
-0.425614 0.343224 0.014398 255 0 0
0.734788 0.406950 0.243604 76 153 0
0.207693 -0.150938 0.225320 127 0 127
0.504912 -0.308729 0.225320 76 153 0
-0.669405 -0.025818 0.233085 0 0 255
-0.633971 -0.324342 0.225320 0 0 255
-0.195175 -0.409772 -0.275700 76 0 153
-0.446765 -0.050816 0.233085 0 0 255
-0.057593 -0.249201 -0.244455 0 255 0
-0.396068 0.433686 0.203395 0 255 0
-0.837994 0.400581 0.224645 76 0 153
0.820145 -0.364937 0.203395 76 0 153
-0.743610 -0.521355 -0.275700 76 0 153
0.801632 -0.083708 -0.017624 127 0 127
0.667298 0.116561 0.225320 76 153 0
0.023614 -0.216447 0.224225 127 0 127
0.587095 -0.488955 -0.275700 76 0 153
0.771334 0.351708 -0.275509 204 51 127
-0.823124 0.257617 0.024939 0 127 127
0.784757 -0.363463 -0.219550 127 127 0
0.756029 0.011584 0.224225 76 153 0
0.115340 0.282551 -0.244455 0 255 0
0.815519 0.366755 -0.203503 127 0 127
0.815519 0.346679 -0.070786 127 0 127
0.496866 -0.392574 0.203395 127 127 0
-0.837011 -0.220024 -0.034460 0 127 127
-0.688396 -0.461762 0.137433 76 0 153
-0.837011 0.404882 0.070651 0 127 127
-0.733128 -0.363463 0.050485 127 127 0
-0.843955 0.350141 0.204665 76 0 153
0.686292 -0.338999 0.224225 76 153 0
0.802224 0.193388 0.203395 127 0 127
-0.133692 -0.363463 -0.217951 127 127 0
-0.843955 -0.010468 0.204105 0 127 127
0.000741 -0.080738 -0.254870 0 255 0
0.683516 -0.383842 0.137433 76 0 153
-0.747459 0.339119 -0.244455 0 255 0
0.801632 -0.308879 0.017582 127 0 127
0.640670 0.306576 0.183458 76 0 153
-0.823124 -0.300819 0.070156 0 127 127
0.712013 0.057569 0.233085 76 153 0
0.578115 0.301368 0.047126 76 0 153
-0.813495 0.414199 -0.166613 0 0 255
-0.026750 0.281697 0.224225 204 51 127
-0.232861 -0.258926 -0.244455 0 255 0
-0.329410 0.363108 -0.244455 0 255 0
0.724245 -0.170556 -0.254870 0 255 0
-0.823124 -0.038496 0.078849 0 127 127
-0.838290 0.188296 0.203395 0 127 127
-0.837011 0.134354 -0.242933 0 127 127
0.194577 0.429813 0.238133 0 255 0
-0.116475 -0.285015 0.233085 0 255 0
0.023629 -0.424488 0.137433 76 0 153
0.250575 -0.377551 -0.275700 76 0 153
-0.326060 0.144936 -0.254870 0 255 0
-0.617604 0.015059 0.225320 0 0 255
0.815519 -0.330393 -0.047145 127 0 127
0.741581 0.166338 0.233639 76 153 0
0.777873 -0.519655 -0.275700 76 0 153
0.640913 -0.398180 0.203882 127 127 0
-0.750952 -0.018551 -0.244455 0 255 0
0.197448 0.376200 -0.244455 0 255 0
0.552949 0.339075 0.233085 76 153 0
-0.665491 0.428342 0.203395 0 255 0
-0.640595 -0.068098 -0.254870 0 255 0
0.072321 0.229624 0.203395 255 0 0
0.648364 -0.334222 -0.244455 0 255 0
-0.367307 -0.359991 -0.267316 76 0 153
0.533371 0.334025 0.203395 76 153 0
0.487332 -0.196173 -0.244455 0 255 0
-0.158661 0.435029 -0.271763 204 51 127
0.532863 0.301368 0.093306 76 0 153
0.573335 -0.252614 -0.254870 0 255 0
0.414082 0.331184 0.203395 153 0 76
0.740877 0.309165 0.037595 76 0 153
-0.595218 -0.086887 0.225320 0 0 255
-0.808541 -0.152394 -0.254870 0 255 0
-0.467199 -0.145170 -0.254870 0 255 0
0.282914 0.222960 0.203395 255 0 0
0.246711 -0.144064 0.233085 127 0 127
-0.823124 -0.225314 -0.270008 0 127 127
-0.308289 0.229859 0.203395 255 0 0
0.480049 0.397164 -0.244455 0 255 0
-0.599395 0.078234 0.225320 0 0 255
0.771754 0.423995 0.239319 76 153 0
0.815519 -0.355360 -0.004002 127 0 127
-0.255170 0.063606 0.225320 0 255 0
-0.637684 -0.387733 0.137433 76 0 153
-0.710214 0.132291 0.233085 0 0 255
-0.459518 0.082420 -0.244455 0 255 0
0.152217 0.346857 -0.244455 0 255 0
-0.785263 -0.258076 0.243439 0 0 255
0.724884 -0.019169 0.225320 76 153 0
0.194407 0.137096 0.233085 127 0 127
-0.318652 -0.295730 0.224225 0 255 0
-0.404784 0.297864 -0.077489 255 0 0
-0.039961 0.399692 -0.244455 204 51 127
-0.404784 0.307600 -0.027165 255 0 0
0.409369 -0.058800 0.225320 76 153 0
-0.823124 -0.328454 -0.029559 0 127 127
-0.277697 0.106767 0.243710 0 255 0
-0.309245 -0.229041 0.203395 153 76 0
0.761707 0.319284 0.099998 76 0 153
-0.491651 -0.183690 0.225320 0 0 255
0.525475 -0.192144 0.233085 76 153 0
-0.837011 0.399934 -0.213992 0 127 127
0.360456 -0.222074 -0.244455 0 255 0
-0.823124 0.109104 0.180596 0 127 127
-0.488171 0.231007 -0.244455 0 255 0
-0.837011 -0.198119 0.057290 0 127 127
-0.332007 -0.388095 0.137433 76 0 153
0.583048 -0.092155 0.233085 76 153 0
0.366642 -0.254732 0.239755 76 153 0
0.608275 -0.283146 0.233085 76 153 0
-0.814129 -0.372972 0.203395 0 127 127
-0.567099 0.181237 -0.254870 0 255 0
-0.156905 -0.514830 0.137433 76 0 153
-0.667457 -0.376917 -0.244455 0 255 0
-0.479202 0.148433 -0.244455 0 255 0
-0.762370 0.296726 0.077269 0 0 255
0.728667 0.306576 -0.132215 76 0 153
-0.131181 0.234165 0.203395 255 0 0
-0.478891 0.397004 -0.275700 204 51 127
0.509351 0.428955 -0.275700 204 51 127
0.011552 -0.137817 0.224225 127 0 127
0.815519 0.290445 -0.047390 127 0 127
-0.464263 0.121822 0.225320 0 0 255
0.761707 0.315132 0.136927 76 0 153
-0.607377 0.200626 0.239224 0 0 255
0.327102 -0.057169 -0.244455 0 255 0
0.587032 -0.363463 0.152645 127 127 0
0.815519 -0.477880 -0.074881 153 76 0
-0.802294 0.308725 0.210764 76 0 153
-0.230042 0.395892 -0.275700 204 51 127
-0.355312 -0.167086 0.203395 153 76 0
0.092758 0.402289 0.203395 0 255 0
0.795250 -0.228693 -0.244455 127 0 127
-0.765431 -0.371438 0.239228 127 127 0
-0.045085 -0.370107 0.203395 127 127 0
-0.609426 0.213895 -0.254870 0 255 0
-0.823124 -0.019518 -0.078209 0 127 127
-0.629937 0.396162 0.203395 0 255 0
-0.047921 0.158278 0.239523 0 255 0
-0.768154 -0.451850 -0.275700 76 0 153
-0.060814 -0.091401 -0.244455 0 255 0
0.815519 0.342840 0.190309 127 0 127
0.167584 -0.463492 0.137433 76 0 153
0.801632 -0.219568 -0.205621 127 0 127
0.438518 0.212840 0.208701 255 0 0
0.497854 -0.363463 -0.188435 127 127 0
0.147496 0.213918 0.203395 255 0 0
0.394473 0.254500 0.208533 255 0 0
-0.695475 -0.435718 -0.275700 76 0 153
-0.696549 0.301368 -0.019745 127 127 0
-0.506025 -0.329479 0.225320 0 0 255
0.631660 0.221025 0.203395 255 0 0
-0.677287 -0.200098 -0.244455 0 255 0
0.588273 -0.376733 -0.244455 0 255 0
0.168299 -0.363463 0.111714 127 127 0
-0.325321 -0.363463 -0.225279 127 127 0
-0.379274 0.293796 0.224225 204 51 127
-0.394101 -0.492370 0.137433 76 0 153
-0.804768 -0.026968 0.239266 0 0 255
0.354931 -0.379491 -0.275700 76 0 153
-0.221518 -0.201234 -0.254870 0 255 0
-0.395828 -0.363463 0.136897 127 127 0
-0.748908 -0.330848 0.240118 0 0 255
0.080228 -0.443216 0.137433 76 0 153
-0.823124 -0.374460 -0.197225 0 127 127
-0.443060 0.366762 -0.244455 0 255 0
